ply
format ascii 1.0
element vertex 812
property float x
property float y
property float z
end_header
0.0006817071893476748 -0.11132111304173928 0.42715304097026313
0.3049877423159516 0.39481287559400347 0.22701569923398404
0.015174657923546355 0.48080326147332497 0.355224839607773
0.13676724291678713 -0.2002601253146048 0.41015779746805026
-0.2257080887114653 -0.32925705366511815 0.44085817217856815
0.30499774584466827 0.32155998499062427 0.23569232400085466
0.06933479107785243 -0.2731654784247688 0.4097212870195119
0.007531005192413186 0.39644134360818695 0.3542118195000564
-0.15947595930481287 -0.09292388710600716 0.4284464320214233
-0.061953360770369774 0.19738754470874356 0.3746921618556172
-0.13182088545456763 -0.4866887881546306 0.4482997517971732
-0.19249778491910982 0.16156145486145304 0.4541662295143224
-0.24657139150850105 -0.04833775259982569 0.4500027481782313
0.11991448846599521 0.1072432561313859 0.37181690858976724
-0.024614399935873048 -0.37715467738380404 0.42516532576865207
-0.2436565563118917 0.30023207162839316 0.4601158005243351
-0.3149559468299253 0.4487299063569495 0.5001613594427652
-0.2875116546755218 -0.35298897481838226 0.4280150504005278
0.10539229105192278 -0.4732580077735477 0.4591908145498026
-0.00987437447823274 0.16565360755077485 0.36804834390541835
-0.15617304431687343 0.1268306345610907 0.4228392798957773
0.005505665160539863 0.04921295152545044 0.40785930178092605
0.004949522916959999 -0.3339920457570832 0.4111457327757696
-0.24242641408371376 -0.1326036231037191 0.43054748605083026
0.10838389377876421 0.1167589158824319 0.3620235328237825
-0.24023860578170314 0.008047415874375288 0.44339860214828763
0.05095597264372484 0.5868619014522939 0.30926389382866887
0.12887020651715855 -0.44197411581962515 0.45531094549818263
0.02403086167826998 0.23080352237656016 0.37963481090543166
-0.19413864665992342 -0.12725957222939024 0.42726895894816186
0.2763202305947557 -0.08741221322652591 0.36628984251789526
0.20265940364162313 0.25690540943604523 0.2901494380415095
-0.3069773932161272 0.23327953117158634 0.47293794356088914
-0.05657135832026828 -0.4475388418235078 0.44321509737686093
-0.05661556165760354 -0.5097849646052545 0.4373677930653713
0.0031778778010858105 0.28257176710860976 0.3590113138651627
-0.0993692532031235 0.11121305821845238 0.4033594652098448
0.20038218977142916 -0.27866692717061475 0.41240720016899146
-0.04731077618269235 -0.5096413098668279 0.47619365788608037
0.1037109043289541 -0.4829137541396172 0.4622875698704431
-0.12394351370386132 0.4799560244373335 0.4152915324839278
0.25517901316681346 -0.35814815759249796 0.44504326511738757
-0.03267804864520851 -0.21456673259541487 0.4151031475137866
0.2266648741473157 -0.31244791097462354 0.41030346036881193
0.1385387724237899 -0.1739291483728514 0.39657862068831307
0.21015682318864798 -0.5028468620880148 0.46363415699872673
0.204387201322836 0.03819947020167276 0.33921606070828586
-0.25390212664842293 -0.5070513587306611 0.43036077341499257
0.14430316094135057 0.35707290263129804 0.3129329441256391
-0.31556158629477865 -0.30180947129222496 0.41967403555843846
-0.32203646922441453 0.047243790720596514 0.4852145478362505
-0.04622881690826954 0.44932443425186946 0.38277875165645114
0.25553509788342155 0.1786240009222468 0.29457158631084746
0.08324447750609704 0.037239692719420604 0.37554561471942416
-0.20754243571603562 -0.22794234882224654 0.44334025491734436
0.09276760793808393 -0.20862557045430782 0.40440186753518553
0.28238851603617804 0.15679958127153532 0.27996411860205694
-0.046103503537409975 0.5973643223584502 0.3524319870863739
-0.24018455192549448 0.21641897915469324 0.4658143969763947
-0.19805042633340478 0.06919034645975672 0.4489005457224333
0.219576014263752 0.26492774365275373 0.2939157350979774
-0.12840366172235318 -0.024330049866199896 0.4247291286035313
0.21517314649293814 -0.5087086035607176 0.4817287489607776
0.18297114586965016 0.07378420842841443 0.3520809503553561
0.19332043595963147 -0.398509424879425 0.43538284721858483
0.17259324146411195 0.21350490381545192 0.3185126163105241
0.3823590442957251 -0.3576721556920768 0.4275307940069049
-0.2689349974403721 0.052232903275063886 0.44180937129678666
-0.2202266642322656 -0.4794542119969426 0.4495303172659593
-0.08374134094842735 -0.06479736934932989 0.43325805428379605
-0.17332946331383736 0.3002223048614632 0.43275471280304484
0.2649130683448086 -0.18290173197887138 0.39362123722502623
0.045104414152227726 0.18158753791305865 0.3576383090805499
0.08453996248911161 0.35207053806321287 0.3233377790692132
0.28520895099972554 0.49795179285003544 0.20377038462315605
0.010155303689442612 -0.31560192665714304 0.41566275616677795
-0.27373732098412606 -0.11078632891014743 0.4552193650563199
0.3459738976997895 -0.4069219714378347 0.44995929763521375
0.18792081694460336 0.5053339793048505 0.2508161016049756
0.17558195311801847 0.05749707547424032 0.3554426590088635
-0.26730560472588405 0.43499055001939685 0.48224256937071674
0.025626454583727795 0.032611298048029785 0.38526453922840614
0.023908486276673666 0.1480756767638084 0.3684335866675473
-0.17093758650959082 -0.5058212660172856 0.4249995664615116
0.24832936490530622 0.3024637857604581 0.2673563627032968
0.015512080956420858 -0.4296703565195415 0.44589563726564946
0.0731692442941039 0.3698381844654146 0.3460595786951994
-0.054051729099164426 0.3483184663662422 0.3899793384968339
-0.34519474139692313 0.26605365278961884 0.5031296970242009
-0.19607558771995756 -0.5453018571883947 0.42720612075054987
0.07169860328420141 -0.24494618816395486 0.41507377121060485
-0.22835994839279547 -0.28056878103193644 0.4660607647864053
0.2386310259590994 -0.1690186935084561 0.3924310974475736
0.3434667132153766 -0.4904275706066006 0.4850182445416951
0.1971430249676068 0.5030386563950021 0.23404377154801498
0.10723054016867832 0.06217946320329334 0.37833464559208585
-0.02106612996057258 -0.23528100098826044 0.4259351937713329
-0.1006835375218943 -0.13017041411190733 0.41689770776034996
-0.29965804531220874 -0.05605815764340879 0.4538366080761778
-0.012407475270296363 0.12455039747610795 0.4067333033456042
0.015494758900326259 -0.0004917118754367393 0.4040341419902498
0.29725058900972307 0.4864011578957824 0.19146255744626892
0.3293473659530053 -0.008941907162707851 0.32831985388069823
-0.042619483584166694 0.584962092552391 0.3609167756158499
0.04749849364518817 0.42605544316779137 0.3327543659224019
-0.24592637753598398 -0.33805397854312713 0.450089841911608
0.2246496940220978 0.4997016542891545 0.23175500802701865
0.34112387663023414 -0.45812884721420777 0.4715384924673883
0.04080318146934128 0.37469255152784353 0.34821211637048033
0.17993693408871686 -0.1378451693853338 0.3907943780575182
0.29848825013261543 0.43267066246431923 0.20842454753191253
-0.15491981805213303 0.4532389043435391 0.42173856777449475
0.2784207922491726 0.3683355711534898 0.2419693226050781
-0.07267290895995564 0.3428168496358062 0.3913237680654965
0.1785781420850332 -0.23741097299753247 0.4161348414015465
0.24889835007832606 -0.5084974463141637 0.46003841567723275
0.07387831277405112 -0.1258909970034841 0.37159227312605647
-0.21666041699788893 -0.3694368733004613 0.43899936545527096
0.059916907196265835 0.2236650457387118 0.34605385082681545
-0.19077016219191442 -0.17324572468936855 0.4450749823240912
-0.20023671259794687 0.1814261474114873 0.45515703939546737
0.1963898959867764 0.40559541747380146 0.27376176536402597
-0.10316305364970928 -0.4426993854652895 0.4343324913931884
-0.0408295895826406 0.4284306403750434 0.3800455642688726
-0.29838779597662823 0.5173610357158966 0.5074423586691659
0.07904344328908063 -0.015629132464725786 0.39081265327506937
0.3132526340823115 0.10162048500074114 0.30878157075993856
0.32418702404921534 0.3044896640013738 0.24926258884273853
-0.2527309073658485 -0.398538994743928 0.4179822565617836
-0.022931960075571627 0.016737388569336625 0.4020674229338853
-0.21022578782464835 -0.12308183968776705 0.4241524322183369
0.18511960944894207 -0.41763701392578406 0.4374894898024883
0.12237062361588454 -0.16014047364544762 0.40446343638434973
-0.12709034335371308 -0.42822675379936104 0.44823762982385873
0.16763002885986034 0.060731117413859906 0.3526070158169045
-0.06818789951161802 0.5568180159127726 0.38302367188055386
-0.12980770471553843 -0.08308068576410638 0.4214654780617868
0.13667357677932884 -0.2125750502787491 0.4246739433496078
-0.25788719250793446 0.025490618087249783 0.44715452604267986
-0.31199223439567786 -0.07593617494627528 0.4605573897959819
-0.28294392826917275 -0.4871623875276249 0.439004660032084
-0.15191207495300824 0.17152407592141358 0.4464198823791829
0.1611554251804995 -0.33071602014964213 0.4102929860343741
0.17569929719925023 0.153204570311086 0.338797189899991
-0.33982535092617056 0.19240115377462758 0.4663062352753847
0.3662879195668733 -0.41030076721336206 0.44264470841182046
-0.15031391724777765 -0.5169143565436406 0.45049986925456104
-0.13979612350274284 0.32683425897833884 0.4319912116672669
-0.08971451094789665 -0.06030072621921523 0.4338150902548019
0.14068961910223093 -0.5272396843669347 0.4860830952835535
0.2899749960354872 0.21879760194983972 0.2706941636793235
0.05404809914798519 0.5673705908740346 0.3266594811132056
0.16895559887706116 -0.31647642986338875 0.43716501950725
0.11206519749076212 -0.4307070357028766 0.45902271918426474
-0.23222196186252272 -0.4466407867513285 0.42893865544266274
-0.32052323682196593 -0.23169681923001584 0.4500120418719919
0.2238709217984444 -0.46760701868561416 0.4633714875044414
0.0704020054632076 0.21701600850310476 0.34150699411928975
0.30793765996870237 0.023440186616042014 0.33623663673363
0.21922145768490503 0.3668766768299423 0.25979825065643225
-0.06284976904850385 0.1452815167522644 0.41674555338186636
0.25281623336584785 -0.21680003223311736 0.4143012343624637
-0.33162431594034636 0.1797299324872977 0.4825033513542255
0.02909299958987347 0.047947852281741685 0.4091084900809171
-0.0014117182769116706 -0.09325170113995344 0.40753831371975197
0.1948561270660192 -0.42727965243906674 0.45845364773103275
0.020416771620339565 0.4754871720289686 0.33986653793946636
-0.1046755249430339 -0.06081146903842304 0.4299856538181539
-0.18569270086061268 -0.36505204287198767 0.43407234768429626
-0.16884685019272944 -0.16303417462172384 0.42969937976130157
-0.034373113480910086 -0.09188958941698566 0.3947958356806641
-0.2780820491026295 0.3852383873351943 0.4703207830094083
-0.24810752305814318 0.2857736231647478 0.4401891441488138
-0.1740256463104492 0.31236213896762305 0.43705565923772877
0.34764614770332497 -0.09038684752164941 0.3728118143044492
0.21118694056988957 -0.029542224231213342 0.3832807606534362
-0.1384489231777271 -0.5893284112926994 0.4450857434711676
0.08723137910922911 -0.2890168709299278 0.42492267175953935
0.05196569724587038 0.317487670855957 0.3515756109280062
-0.2768247407079422 -0.4404891961185558 0.42765265583224304
-0.290581833180592 0.04952907403772005 0.44830402292084376
-0.31161122648621487 -0.3437420554273119 0.4345285287534787
-0.1449033637982624 -0.30380648557545425 0.43700332322597407
0.1477092042431953 0.5612400224213425 0.24783249399947724
0.21027413764406983 0.3523546022596264 0.2597062658134617
0.2184138050457682 0.5281029535579889 0.23117638950414082
0.12319341217328851 -0.00749135810586107 0.38001475403072604
0.04841334846756031 -0.45609341273107085 0.4574790653039503
-0.23807737102524643 0.05497393614248754 0.42842113518888686
0.27131041467724754 -0.06008815493889327 0.3703908797591606
-0.1543050687574093 0.4317781975852462 0.42229405840891215
-0.012023434632029723 -0.48519032457097633 0.4558486246339494
0.13521887089162773 -0.014710430162727066 0.3522524189890855
0.002635435418571056 -0.41330945216330056 0.43799709669053144
0.1339827188170683 -0.2020950144639751 0.4081585764884803
-0.07046466466219355 0.28627085692536036 0.42165064164406574
0.058349110893061 -0.017905692618120004 0.3985290671348204
0.2423825288591951 -0.1750797315089278 0.37967386668334496
0.26952705294795487 -0.14844672793028574 0.36516321780968136
-0.05292629699907816 -0.04818915020466202 0.41901174801908614
-0.2617003330869533 0.3558647903558288 0.46684454651260937
0.08483844963824382 0.4451873916266284 0.2879897962917834
-0.16299619011236974 0.5504957623815214 0.4169765144561177
-0.10412697437797214 0.34469493166942117 0.4089217111966569
-0.30066356412833095 -0.22958550493795915 0.45174181159175986
-0.2207096665565818 0.2289101122094776 0.4601344008941199
-0.0385885506021418 -0.08315873376780047 0.41349731945409113
-0.11165959572378205 -0.29510137262138536 0.4406174182869886
-0.26508085792944036 0.4376731464684321 0.46359399190365186
0.07411968438823639 -0.5593074653063761 0.4700761899968178
0.09928211764515309 0.4771108252391322 0.2867870238842464
0.33950954865332394 -0.06679661180347041 0.33851128294726957
-0.21515654522950775 0.17052659466955997 0.45733862579389534
-0.19101521651159678 0.19963182925176995 0.4405459101181146
0.2685856039073909 0.452794656596691 0.2163144896400946
-0.06839481633316347 0.1740482195656151 0.39529417560848595
0.026829581858136206 0.12490768075737459 0.38323654828612197
0.27724685620077405 -0.5163819685838343 0.4845233415500039
-0.3301927213057508 0.02930854392319497 0.4533434762186572
0.24078373505278375 -0.3995450791923439 0.45590582928887585
0.2877960115053874 0.27090775703875625 0.25501260268376597
-0.05414721588974304 0.01867694629023593 0.40484480475577855
-0.16903275976299667 0.23196442087363947 0.44833061557310033
-0.10301856502023868 -0.4888756470420052 0.44058388581395347
-0.05451750254385969 0.2620069798299266 0.3812751948572217
0.2975966766592718 -0.5079518329243768 0.46171393777255665
0.2500893658349899 -0.5035451218615474 0.47813252152067637
-0.041676067373260586 -0.5769334604238415 0.450208572844162
0.13395894823726556 0.5383212239845272 0.2721149099483172
-0.2891300884347064 0.3014662958226284 0.5033109210021667
-0.20725949228835 -0.17190045037562793 0.40367991269650827
-0.33818894951547634 -0.24584454764382657 0.4405875519554187
0.16900751842541029 -0.18569518989737827 0.40693027359946315
-0.3344571003671104 0.3302585789792269 0.4975676344886372
0.05366125769162112 0.1974840240593451 0.35718591252439635
0.10239437161740342 -0.3807874402717978 0.4416486991534673
0.3461333632843486 -0.4090858824943294 0.4417333032453597
0.3194376474032504 -0.49388067120087475 0.4787450828478634
-0.1270143512226189 0.20017608898041084 0.43151018804557695
0.023803606806041117 0.3100878339442504 0.37806761897823926
0.19662023902560172 -0.2740651600305858 0.41967832172923597
-0.10413332614968268 -0.5932235924482425 0.4440249302645344
0.1948332976850026 -0.4895546576800164 0.4732948349491377
-0.061122769985415555 0.5775338881819474 0.36093603725110973
0.1042082842374713 -0.24497556308885407 0.4166447208150673
-0.20642065402281115 0.32331357767497076 0.44067496618121615
-0.22213726068659764 0.15149456878277198 0.4832796301533569
0.022998130060137494 -0.14522599077452128 0.40195880566135544
0.09065136293136203 -0.36166143573450443 0.43643680641609917
0.11623075635418284 -0.4402537970539048 0.45344486196238337
-0.21546672065829325 0.14620672120819708 0.4410976678617201
0.13382097997722237 0.32110686635685465 0.3185447079483705
0.17900975210578146 0.1634854652165106 0.3292077549958253
0.2810359098675635 0.021895767703700383 0.33854969350880515
0.010196673763326908 -0.5359411292991156 0.45338869843109775
0.007909582139586127 0.5473151498318322 0.33964215358349487
-0.206029474287065 0.3743499235449689 0.45128465141032903
0.21354129561603516 -0.2518201423004877 0.42614013956218594
0.08649706329691931 0.5389766358555401 0.2870522510755909
-0.20505006378757212 0.1292201599085299 0.43630023496217485
-0.23202104586485436 0.08541046586379791 0.4480181627151348
0.10073221012148437 0.3010756618033327 0.3613835654849127
0.03642551690517885 0.3812052369914755 0.36953199647603907
0.13955008032097593 0.18050960803002514 0.3483663266626906
-0.30606454120538706 -0.4500721477987809 0.4255501443057449
0.27631418544745223 -0.18742403633923727 0.40185622912027896
-0.1488091338383976 -0.3093169406837246 0.4302515804149332
-0.025308286942520183 -0.16134362992191326 0.44536968922251274
0.3351060256682123 -0.09499000464204667 0.3645961813524216
0.025046414762595826 -0.07449864815606586 0.4130428598631115
0.05580921248807905 0.12801287382765822 0.3478515523631086
0.21123281041321082 0.5347003808067918 0.24293072391129578
-0.11357205207922311 -0.2925343397954856 0.433845876286621
-0.3519434555647704 -0.45284832371947936 0.42971489816091507
-0.047829268675647595 -0.3496721331461865 0.43887925326297533
-0.1363310369955061 0.47936837524930576 0.4260351058380382
0.2886085423253885 0.15108569977449313 0.29201383840745565
0.05805833032264246 -0.2550549004941076 0.4225828074997974
0.28473552301843874 0.35229925276193996 0.22932140918469146
-0.07230218605166383 0.43123235754817746 0.39398707225421864
-0.28877745805384203 0.4402973554229592 0.47644980481284904
-0.11313592246732865 0.5100170574763963 0.4111309064529388
0.3305347445168528 -0.28740841410364976 0.41806653011813943
0.09002753504638361 0.29485057689980565 0.3244375388727969
-0.029374263038419113 -0.04387780530500692 0.3979746969872151
0.06071787498211416 0.41397798644377626 0.33201918562489646
-0.22228665625952254 0.2851980329558526 0.4718142497815763
-0.2111934146372893 0.33499048011784116 0.4427913937674386
-0.07469614442861967 0.16450029362582916 0.4032004919474546
0.09113055799275283 -0.3985983815624648 0.43129596076408255
0.1795998259501629 0.051893822693755025 0.3551177788208449
0.09928610942007118 0.5178119435047048 0.3080390819112243
0.06630057578121944 -0.5592589597836326 0.4785763876613718
-0.12599119229658096 -0.40622767954277866 0.4264489545534068
-0.11321104374385538 -0.44122966969478333 0.45657589004873217
0.2903825909892305 0.2503106724747335 0.2738500750720231
0.0799183116612858 0.3778596406479058 0.33701679110661065
0.23286234395222535 -0.33995992129565406 0.4437555634855676
0.2481156750642786 0.00010551031224915542 0.3624802846288429
-0.24374639607804247 0.4374414954973132 0.44026984377327866
0.30653992853963524 0.2655419824803565 0.25408940714423206
0.06673669154087322 0.03847556745909465 0.38418404709948784
0.2253488544982078 0.10442945015907573 0.32646840554611306
-0.26631324632323744 0.010260707966890013 0.4499383900116719
-0.038472660268434926 -0.23193455488591977 0.42173732531493285
0.17908998003390741 0.07892251496906108 0.34485037448680794
0.00663718747050398 0.21646752561146407 0.3595252759524461
-0.16026730445448029 0.4455633149823088 0.42700262729667726
-0.32346589610657633 0.17990434478006698 0.47547252567701864
0.19163935642716817 0.30560315908365515 0.2954457924299043
-0.2852823226204305 -0.4012585952852349 0.42804390024614336
-0.2939384917026769 -0.0426154738084891 0.44630114003135984
-0.0969376635896475 -0.3105397990099779 0.441267753149647
-0.06663352356620891 0.2657991229414634 0.4078874267333324
0.04612150778022781 0.5878683555434217 0.29442843914948935
-0.19402561850336092 -0.49059733486855595 0.4456466533157615
-0.01229648189130871 -0.1170341794102564 0.4065390211409319
-0.10412020401213319 0.3558823356826441 0.3918900060459505
0.057085830587777366 -0.36437287499800763 0.445916245194016
-0.16586021691120478 0.07583966761039418 0.44651247417419776
-0.23365095092689553 0.2810117439595796 0.45262454400485824
0.2607955801142703 0.12464248990384877 0.30972420182760424
-0.24005673712415823 -0.3782383699872853 0.43924278131043
-0.044499248931903795 -0.15016352289815593 0.40739199364369666
-0.23688351767182553 0.3482595075235101 0.4795506580272562
0.03484642536947039 0.08336704095367214 0.38927078766438966
-0.2781318423025957 0.31307225928689225 0.48398825808227136
0.17942116425053886 -0.5401356449968262 0.46575096818261946
-0.2357534334230754 0.2969581402622043 0.4489791354009888
0.019142270190795944 -0.3497942911573853 0.44862688335912815
-0.027117833762263524 0.557952332614963 0.37373269467593395
0.13301367328358027 -0.14030581386520158 0.39788925590012264
-0.06646120487631872 -0.2091694691023261 0.4363774889204661
0.12081848856556021 -0.4247500916935625 0.45269631241661923
0.333629747981766 -0.22871491966958912 0.4018947806788312
0.15732780384982545 0.4377517068432699 0.28299080454333314
-0.3527412046473904 -0.14025241796748494 0.4492320749136463
-0.319519679004919 -0.05792307310653872 0.464168634357286
0.06675381271754845 0.2522421954775739 0.32924748692586603
-0.163121738652532 0.46539320448288907 0.42870788776219265
0.11747592784759546 0.10362775032022122 0.35083188582189095
-0.13689208859366503 -0.12303906413746064 0.4431197420238609
-0.2053358008346259 -0.09395757769109667 0.4486057751081407
-0.2897007867792316 0.24766664265013166 0.487552492540446
-0.19975569866805346 0.13496650688159956 0.4350572191179106
0.16826537528512145 -0.17372766724134553 0.41918461561749143
-0.3311155875046049 0.3771938874388364 0.4974755093231445
0.3499809546474038 -0.4968542338570777 0.4647026416023652
-0.06687028561484981 0.1073364540420011 0.4177438750305837
-0.11098259928773319 -0.024016808126218973 0.44535732751119234
-0.13098987936755735 0.18560037045441294 0.4180509130240586
0.2907740922972878 -0.5078087355962797 0.47827195839325515
-0.32946515406509413 0.10385385776888645 0.48197087183262427
0.2282515568982673 0.07217612555817822 0.32016575523388313
-0.09306663000838697 0.07870199656413415 0.41778575642774596
0.20498045407293797 0.11658389635803061 0.33799329129997735
0.13285659185342355 0.19627533225427968 0.3120727729947957
-0.027091462949658984 0.3671692073824183 0.3695992877991142
0.04405142433896985 -0.26877084016663116 0.4226659972425389
0.23456662167562525 0.3962773155622431 0.23803480175342367
0.2251538466667368 -0.009029799529618625 0.3676801100218828
0.044708673722439876 -0.48504064794450397 0.4578195843629215
-0.19337971400447238 -0.5305866198398679 0.43386009574661377
-0.2765723585345099 -0.2058277669339863 0.4502634864427253
0.27805419249012064 0.3205701483011046 0.2755404040966162
0.07744526148201619 0.2513796141981516 0.36005489659871426
0.2566137718420068 0.35054132473160626 0.2279054862530292
0.332463312237675 0.008449530750270141 0.33022657141503314
-0.11280858876059573 -0.07111829544707629 0.42598650886342165
-0.08552291315170354 -0.4360207132290132 0.4484977533626
0.25019922247986026 -0.19144411385418475 0.3918314827274412
0.19636856033545383 -0.08469832582912727 0.3899356091864623
-0.235049546992334 -0.3309295905592687 0.4354132879149446
-0.32070186735283024 0.13300822317415778 0.4711834660660828
0.235553964403389 0.2688691113401127 0.2935149872575978
-0.23299278831236503 0.5190320144578647 0.46266984589912913
-0.28218234760861627 0.16807814280542757 0.4773535399109127
0.05113796223985828 -0.07872076310466226 0.39338203156235907
0.32248606417179987 0.15478267836445464 0.2924770348097778
0.2924832542217397 0.3057681709515546 0.23482088707464338
-0.052411031461287366 -0.4670978877606575 0.43352015599902033
0.08208834872666033 -0.10303917180255932 0.39881098648352103
0.32480569431578793 0.3791555026115412 0.21188489846945482
-0.04317332715047713 -0.13721362224415354 0.42301478133031317
0.3643592819066903 0.06285523527855871 0.31236908139533914
-0.18361632154829388 0.10699869651719053 0.45094483884386144
0.13259629649401028 -0.3834261504804474 0.4433908098594286
0.33835812755610045 -0.1570026322564141 0.3961183671103735
-0.06440095776042025 -0.18499772805508546 0.4228166084667966
0.08586110056057888 -0.5626717980879274 0.470714197375914
-0.02552517418742546 0.3812535317742019 0.36115772169669796
0.16447217179152918 -0.28862697785207075 0.4277520261544445
-0.13864029526725105 0.028141402205387776 0.41847256001854677
0.17940774562188788 -0.2210559342535373 0.41487015660366616
0.09637433651277744 -0.28570810157647003 0.43100169284479706
-0.03670708815473453 -0.08374180546133538 0.4232487189582369
0.32429003560816916 0.41617282323618776 0.21007051095559703
0.037867193953984614 0.4217632042936272 0.32959794036649853
-0.2589154304948365 -0.36841073098739263 0.45509946745293567
-0.20002271522214823 0.37229996854776193 0.4540968568685911
0.20970317780151543 -0.06218702735807073 0.36974887348036223
0.18912438673963888 -0.03584685247133158 0.36157772966721097
-0.22393978593651834 -0.43273999710741107 0.442809267209048
-0.3195112228931057 -0.4977108736607301 0.4211082041464292
0.27340920519843476 0.26355496329925365 0.27335828446325033
0.038443466510430256 -0.006339926842847298 0.38955750379769677
0.14721406652944102 -0.06822813520146193 0.3933138375473613
-0.25558063056798996 0.27904713332884395 0.46358276787748187
0.2860114227494425 0.28662092334839373 0.2399810930736275
0.20688172950046674 -0.4046150330681554 0.4441005512601616
-0.16060550487613495 0.12183605815461565 0.4282680274739855
0.3474608419209951 -0.4327237364661743 0.46568389343300354
0.025596438734740837 0.2929205209394269 0.366121058500547
0.037232375264222885 0.16651030001959682 0.3650005380504017
0.11831818085882043 0.5443519165330375 0.29080349327299654
0.07498754764578805 -0.5204570700236775 0.4718210209291425
-0.027369796925867326 -0.5259865592715917 0.4542470721385452
0.2605741505607696 -0.25175029464575144 0.39962236295978365
0.6746673399020421 0.34375375860669755 0.5140380446557734
0.4800220564928566 -0.07123835016020293 0.6362826939089729
0.5391111984270449 0.13223910384529347 0.5702521141725329
0.4516823510192533 0.28988951157961734 0.5295641558898978
0.4803780873607632 0.5513983637057727 0.43356831605231555
0.6256132049733749 0.5987207654895113 0.4123010551161988
0.47085172670555075 0.22946058936075733 0.5472818242789746
0.21572481058164164 0.4412882665121929 0.5081369785311726
0.6846406723185676 0.15747097381708017 0.5997218451315205
0.41063928894630614 0.4566098960717313 0.481948814157005
0.7729799715140717 -0.07161126472364145 0.7078916220641854
0.7446078297218105 0.10431450115713872 0.6092946652001139
0.46475752612153254 0.2979589432078896 0.5009454953825692
0.7844945401797976 0.42186816045827413 0.4739428350373546
0.692178580394972 0.5233383500203401 0.42607799643286537
0.46192201148889067 0.08984240569268305 0.5642834396441553
0.370777370236627 0.14588537982305647 0.5508179513205718
0.697236561855478 0.5316700243166763 0.39447792420907535
0.4003225940115608 0.4508818546336593 0.4653200652243813
0.6787525846722584 0.005141499233261293 0.643717555110716
0.43509859049486405 0.01359770985686727 0.5925100346702598
0.5755589341399945 0.35698284668631824 0.4923430265201308
0.3825588138517768 0.25564481316609056 0.5322965189440398
0.2183401305451876 -0.15029244994286683 0.5688547109653916
0.26740830874800225 0.018001497178143172 0.5454098382174581
0.789354006265089 0.5625372143485453 0.37315775726634987
0.2715089712051305 0.3693652797161189 0.4981081085302882
0.23307860965564733 0.45993436419151973 0.4801532227250626
0.6458504925635056 0.5950495176303413 0.3895002229152164
0.5686710801335944 -0.06433727702887782 0.6567169098329348
0.7543254112313923 0.45261113570241335 0.4458262809182683
0.35901319670883985 0.35726741810197654 0.5081920361306264
0.22881365261053632 0.16952187657171902 0.5288692269310179
0.42934859921471336 0.05602464887772506 0.5761012764398056
0.3743942897232862 0.5531899689359702 0.4522594001826592
0.3451827505628092 0.5496850897878793 0.47514701080527416
0.6467348696515531 -0.23275255391150204 0.7391291758574069
0.7979732737468156 0.2926240038783435 0.5336041394368335
0.799064631487298 0.07910505953485883 0.6420082333143706
0.5878716314366574 0.13683634949506635 0.5815789851053519
0.6551558930031419 0.4876444862713556 0.44955322865279573
0.7472665907336048 0.03980884667391766 0.6628477105153684
0.6960138920965587 0.6193484110161609 0.39772279438736846
0.7218831769669559 -0.0777510734095237 0.7168748437292669
0.25979589737428255 0.351144591440636 0.5136672443640546
0.728338849073159 0.37401312798754677 0.4886315602142402
0.4762132046255513 -0.0357052476071808 0.6052212457674544
0.4610168047948489 0.02912675623552253 0.594099327021225
0.4676850686208587 0.5069495258572421 0.44618220470123543
0.7457488697750445 0.4510418236645364 0.4558529862896079
0.6104074360405288 0.04063991165044142 0.6285347845515412
0.7833286637091824 0.24569955225369394 0.5677291012506603
0.5633983082409898 -0.2256422049310593 0.6948626339850479
0.6868318428013375 -0.061354888064834225 0.694320550185194
0.4800045259473217 0.19252217179061065 0.5630051599537602
0.3890293320368816 -0.21592709558232392 0.6327831793100425
0.4723363647923041 0.5437208011870214 0.45686565619277797
0.545038572695403 0.4197148254807698 0.46246768784570974
0.5751401382084848 0.60597758763316 0.4038038759172449
0.29025200209549 0.39286093851817383 0.4995863867232123
0.6859258912149617 0.604191862422888 0.3936029220743817
0.3612838114593298 0.23293300522933091 0.5158600476212473
0.3437533836084459 0.30513597785013696 0.5195382863429566
0.5381022328542406 0.6502672896233628 0.4165376727399513
0.6232747137372235 0.3324635885990254 0.5127668720059342
0.5246684596796596 -0.24980727859343987 0.7032499271527094
0.7431994342686937 0.4170371651065666 0.4729961247724793
0.7832546984000849 0.5651841536155354 0.3757600254080685
0.7459142232252317 0.47431588800912344 0.4424657524316877
0.6847582533711033 0.29143140547599006 0.5266006490981888
0.49612184148605426 0.3712223699035454 0.5101776896055603
0.6482608657455323 -0.15300108038277244 0.7325723540343283
0.22687149343031007 0.364042178837052 0.4985619921167881
0.23669711837525564 -0.02699507357188494 0.5525771786367754
0.21434970903608752 0.34291224685392047 0.49442867280263597
0.285936029532387 0.3045642714414985 0.5281181313301778
0.5758852521535998 -0.11533471614809183 0.6907799610812794
0.7582483202851654 -0.06002367055356905 0.6993747868153809
0.4365053447766135 0.3131167888045346 0.5243986250648283
0.45459707060591753 -0.15118495991214342 0.6408170936119642
0.2954083381506303 -0.03300637862202718 0.5629277650761149
0.19895534543684448 0.5265116624603214 0.4908629405180636
0.4975396081340458 0.03536628791004797 0.6166502243010609
0.5989624146350895 0.18472571118776168 0.5622838723406618
0.692293226307165 0.6105283568748451 0.40776495162121656
0.793945124592656 -0.05541520064909759 0.7063134380640415
0.4752755912603377 0.09116628208589198 0.5624614065013498
0.45790333152787144 0.28601558319325304 0.5208544385507109
0.30270249024956025 0.45059668590580426 0.48498483040460416
0.48325113031153266 0.5882826550361445 0.44870797070147844
0.2485479108783615 0.6051511358007075 0.452478765355594
0.4130379446236665 0.47026492384168544 0.48355477784318307
0.3031216740781347 -0.06828283539041885 0.5843463284405997
0.2945795925734902 0.07122220238390473 0.5507592118175965
0.3894634316327778 -0.152323305224579 0.6274143430820084
0.7164304049157318 0.3851603704727492 0.48397373233263563
0.7020205643163991 0.3608469886565372 0.5085640395653861
0.7914346480831561 0.523523836355035 0.4047395183757726
0.5081313073642143 -0.037853145127734966 0.6097631593490187
0.6231566843247939 0.1524610340532653 0.581531446821378
0.3966335661218108 0.3597588438312507 0.5010382196334607
0.299470663035098 0.12927558661688326 0.5410225288871993
0.5924587006590214 0.15197454203093652 0.5727001093137695
0.5557220963114256 -0.2226676584963994 0.6961090410853079
0.22386173961587094 0.08439875428300811 0.5372094882319985
0.3329312101504178 0.4478378560240959 0.48183554139157503
0.25471594280979803 0.6029843767748091 0.48788398789905996
0.5287162642226587 0.1293016049656023 0.5776305018626989
0.6470783395708478 0.1353949960378398 0.6024095724645963
0.5625360680252665 0.4082944125698326 0.5166936255823636
0.3696758681400762 0.6231565401478496 0.4451607688045005
0.7268732953306563 0.005084821224010187 0.6640210110099984
0.6601644205564685 0.15727159030509186 0.5695148454198269
0.7689287189727279 0.4824949266410449 0.44761729190689875
0.5279624930338287 0.3120635416674651 0.4985438502898569
0.3087156531059068 -0.1814088429653232 0.5946440447922255
0.7711321563358559 0.3245666449505337 0.5096075974607571
0.4038215303999786 -0.11731261652229125 0.6057416928237381
0.22141343436663813 0.20416619028444466 0.5222771299207155
0.6454760832831533 0.23351997995149237 0.5636339302389635
0.3793341166549605 0.566659090753361 0.4560284649018552
0.2050327480857196 0.1740920558168847 0.5226738434944784
0.2346544375574763 -0.02318950085920368 0.5499085795928933
0.6614662573190399 -0.04075746263046927 0.6590502848064762
0.7412552359937491 0.5400399269422735 0.3987537942323094
0.692312612128696 -0.08223912499783675 0.7291026775744106
0.3897630798096068 0.13657401372566394 0.5516476797286562
0.3616808005144962 -0.11863030060932772 0.6109385417916051
0.3963490007881846 0.46240883712257774 0.4887674203484068
0.6017427874987296 0.17063711492120737 0.5618695226606353
0.7019993154985654 0.08032085422589022 0.6378681260152591
0.47120266705137565 0.08109528560638299 0.5873652115307607
0.5015865992738452 0.5223710818455793 0.4388144875624702
0.37042655436948274 0.2668897872664037 0.52957523103228
0.5472056524181739 0.40482893089391164 0.4891230126970733
0.6071251204628769 0.5540465464298816 0.41121076234100146
0.636104879125202 0.5796215611292058 0.3973705979104311
0.6459742500250739 0.04394823473468453 0.6361920909226281
0.6352444239329518 0.6244049836373933 0.3919773672329926
0.5973797038146231 0.06401744247011297 0.589855493049735
0.7809494382800571 0.5695278614064333 0.39257235761573134
0.6891063235980498 -0.004607865918347899 0.6593283848068124
0.3476318335716644 -0.01986794170248543 0.5737738279578348
0.611319152347132 0.02114070255354112 0.6320336122482739
0.39224053227151234 0.29277338742900966 0.5072599683152268
0.36775440088289835 0.1119882571544266 0.5491268228453279
0.4600405424344514 0.4226237209947218 0.4791078891165715
0.21939007550381656 0.5844511743920908 0.4751050693471988
0.8044319034675158 0.3744429685193617 0.4984585551761909
0.35541319509192 -0.0870756131511803 0.5817202204165812
0.28460869463117777 -0.03550105082939414 0.5752410654835318
0.7003217978806325 -0.1109781236129414 0.7165768446891516
0.6059312037915041 -0.1888931295991861 0.7018729316876827
0.6969930051877707 0.2655960915646545 0.5234948651746006
0.44563358344130777 -0.1670999132154001 0.6448957597723822
0.40013051302727576 -0.16430162471355672 0.6139501818944533
0.6037949259347043 0.016235706327108065 0.6312658375089729
0.4626910857889702 -0.015424142933885353 0.6092435300166169
0.39751107861888474 0.3203633926814895 0.5286081905701299
0.5402017039475806 0.4935180626558543 0.4480637197436895
0.30280206781010444 0.4522646988960861 0.47290906507187963
0.3354495967736002 -0.03155038064940847 0.5884270428729004
0.7534630242222201 -0.014889175574126699 0.6709198201564488
0.4264725412126157 0.6573536853199401 0.41589791764197886
0.4564256670650328 0.5450101337162098 0.4565555672472822
0.22551684464316626 -0.10861028150429604 0.5682847204717006
0.5715228537756822 0.05161561035801484 0.6032627461593859
0.6257000866224515 0.161213929085677 0.5828935889570983
0.6512087312353304 0.38029881810681104 0.4697157812943353
0.48911865868970655 0.2801483400803309 0.5167487302890954
0.7203282914542477 0.04261868442784774 0.6511270236523268
0.4677455312615833 0.26425418837297604 0.5473609349235881
0.7861996800911489 0.4184843498213647 0.4575910327052871
0.5994585646152208 -0.22048791082140945 0.7263525345773025
0.22177638977277814 0.1558715598825366 0.5311467044288596
0.36121029319660297 -0.1714938303208831 0.6017310422760539
0.5822048372904026 0.3760882731800533 0.49180452962840926
0.7264865000209603 -0.048174530998045174 0.7024566964201553
0.48805918226903233 0.14962005863076644 0.5743236999342507
0.6623106823486322 -0.07698658928914487 0.6852689907645685
0.48692839674527316 0.24270593085841305 0.5160571538999388
0.30444950668680903 -0.20297882085628938 0.6194286343173978
0.42342124054984237 -0.2650834152176683 0.66861503713388
0.41964087293741675 -0.24054506578592227 0.6589496523838372
0.490022473756181 0.6423414727404498 0.43272279380293815
0.24056215883236673 -0.16396396175808262 0.5768495317584946
0.2420678194412553 0.4155613343764019 0.49450569395067123
0.488568835650218 -0.20756672857283395 0.6595155055850342
0.61055241510347 -0.16236639572960265 0.6987773661298331
0.534711477577491 0.1985281102994619 0.5481415527796544
0.6896166051371238 0.1870118753805391 0.582563034582299
0.42550423869538817 0.6425439602058292 0.4308259414916799
0.4890481005376958 0.6098448247560239 0.4171214578759033
0.7358339274918752 0.46968727619043943 0.45383121612270816
0.6798914469918342 0.2875415906373954 0.529922542919115
0.5019435782782311 0.14994379553780243 0.5552807724429621
0.2694513323102392 0.06088120377542276 0.5499543797430119
0.4547467368760387 0.6134381938931697 0.42836062180679796
0.3830732325142747 0.2982703632920669 0.5121853160655041
0.6049902265211802 0.2752091075918803 0.5299672374642383
0.4629897282696298 -0.03816825513126039 0.6282706065001157
0.5295752605941225 -0.22842080434691847 0.6933145874032374
0.39266931084134066 0.6246155830445791 0.42601169639594877
0.7714957631713427 0.02981213742011385 0.6768748238354516
0.5115048681664942 0.1456259043671797 0.567820262918007
0.6130788575785128 -0.15166825834329709 0.7184195549559711
0.5990755271523093 0.5020690992755128 0.443280127245691
0.6969086417067297 0.500310319509978 0.4200019283821467
0.601383010003195 -0.13871957163214538 0.6916397749259378
0.49127588568942593 0.5623927065570945 0.4268978351822019
0.2776526918465545 0.4242303251924427 0.488558271574256
0.5602183035636362 -0.1098310547076374 0.6504367049222838
0.3590084816497836 0.266341388783343 0.5179891191512354
0.2749599396969957 0.007000348439702988 0.5606346514972832
0.599761602503427 -0.11058871049589117 0.6800755040191895
0.5632363329821057 0.5356557252037417 0.4325133218721762
0.5740552963337109 0.1078998831420616 0.5978347428494463
0.299134514911812 0.07647944235650142 0.5439874679959715
0.7553141500985346 -0.08586902556216056 0.7357207115970442
0.5968898921107905 0.1022255959711804 0.5935404298519156
0.40582139502248143 0.5586326988694872 0.44068199187882984
0.44986821770093904 0.07070837446501697 0.5801640232420668
0.5382181543945318 0.6444704846198687 0.3997365138210932
0.4760382574984948 0.6412068356666629 0.4227914025871342
0.660185803820846 -0.1152369077152195 0.703339793124487
0.5545370879807285 -0.11200934012824411 0.6893109462440463
0.5136324040575178 0.5379168728517253 0.4411246904242636
0.26974532352911057 0.09317934516643943 0.5474626327947825
0.29625088604763883 -0.03346790615528314 0.561840482680252
0.4098566636190714 0.3007659115599428 0.5213547265607749
0.795004014220371 0.48477880425448855 0.41230125001483203
0.3722857706190905 -0.16133207828516696 0.6329951606706177
0.7547633345115247 -0.12574909519758454 0.7632224364765561
0.27868698652255774 0.46074200198633525 0.49420389435246803
0.6257163296837909 0.2895115800766478 0.522805022562527
0.6471494084814585 0.4460878995256876 0.45757245148870485
0.5470833877447299 0.1395975149571101 0.5801829732558373
0.5839914053697821 0.44679664591882656 0.45194568637892485
0.5948532003624067 0.08099104643286047 0.6006520561927879
0.596977096573526 -0.034934734715398735 0.6689645569927616
0.43693425790889834 0.4280665004120505 0.4901073632166914
0.6957717498823706 0.11818996863515027 0.6015993866025695
0.31301550971641506 0.0556867101520256 0.5627210787527194
0.5305588518350477 0.6133625752653487 0.41601950760740847
0.26536779245954034 0.638659600136226 0.47101975934809753
0.6346845799113037 -0.018686223629346008 0.6707794614237738
0.7953679767010977 0.4919889532797613 0.4466079094368254
0.43566490433677735 0.137805859975768 0.5664774654341522
0.52182958639805 0.596246634236736 0.41098250703968786
0.45670619740983703 0.1471595410181798 0.5535567036097213
0.2590643101427306 0.43421037178810407 0.49566173758842724
0.20385137495857836 0.15702676051543302 0.528518111464315
0.4180872809380053 -0.06810094609363199 0.5945422327874316
0.3490951580431527 -0.0944981257731019 0.6002514923119363
0.7576137804982486 0.14213763609153843 0.6128030433624873
0.7075767848795643 0.4462440214522316 0.44377883599970297
0.3508620220049519 0.31479179599018736 0.48972875479536904
0.540090255243886 0.3912832643337382 0.4912736941249617
0.5277387313636778 -0.0038908553669288123 0.6195688591021109
0.6144277574306913 0.17934284060356437 0.5789624908180065
0.4520949323305176 -0.2435900891990518 0.6486338559759284
0.6867118532531962 0.4946533555476426 0.4394858944511999
0.4116669427314193 0.6646225291810263 0.42392954687796425
0.7029176341970863 0.11451254911429463 0.5948783018750724
0.6318797486936297 -0.09727204942374668 0.6777196794633171
0.6708378099093933 0.34413922493084864 0.5125408229010141
0.2676241901832143 0.30599535043258963 0.5094317484664312
0.756337100634027 0.486560368623119 0.43070883891528766
0.6762817341365683 -0.021445975221614146 0.6631846468071414
0.46988414775984927 0.45893266345707096 0.48265582402176754
0.5195923789282086 0.37611707765637337 0.49361916358888497
0.7719904053667718 0.03130052167834765 0.6655534544845393
0.7804927467054332 0.2699856275549313 0.5519075392516232
0.21365227829465416 -0.17349075117947327 0.556690241866592
0.4282176226629232 0.16040080326065065 0.5368564079502816
0.597444378780239 0.5717152524522073 0.42061630562946656
0.5206258255507051 0.1255128596493226 0.5960315225759594
0.6345735879055827 0.5199769650931233 0.42671881766831615
0.5788392719721804 0.30910174897061504 0.5145570673556662
0.4150564186561948 -0.11942160199980191 0.6128485738678658
0.2744406639056603 0.26590736305662915 0.5213528313596725
0.6859594632049941 0.2227798935312212 0.5791484942765321
0.2923149618831062 0.09383685854194271 0.5498142352579437
0.7263734284281479 -0.1384886113942764 0.7427010439041742
0.6667672099850237 0.1297153737211902 0.6133568422432827
0.7151386404858522 -0.15184013850552117 0.7532755052571741
0.250733722902767 0.11127201485074817 0.5273053226187
0.5365877791886828 -0.011736413202680093 0.613048038031491
0.7707223389157352 0.5782344562573866 0.3817776243614264
0.22101822522671935 0.0626428410398992 0.5489312234757822
0.27181799603005363 0.43041894960117344 0.478019240094815
0.3574001409824435 0.22966038002518688 0.5467430908517258
0.2545090189150342 0.3939705659726645 0.5223805760819586
0.664645418591125 -0.025279240148296425 0.6573730407327147
0.270681975068071 0.6492081505584136 0.47006879360036224
0.37619180827130677 0.2236697006219165 0.5332082875620768
0.26475591288418016 0.5064043140802522 0.47349075747893865
0.3211337865903042 0.057265590147321035 0.5606921367299068
0.6034859224541099 -0.17413725017517923 0.7041564802343421
0.3415485137678625 0.3719510405943741 0.49395619053146417
0.6031250589362709 0.18551588479094974 0.5575586865603107
0.7419036561118951 -0.057111376554570784 0.7033989775036319
0.23998201020475907 0.3266766255727062 0.5023578702545196
0.633590011735455 0.6505617963947676 0.36486786200085347
0.4923093291967459 0.15459368292050726 0.5686543787567209
0.5595405273803017 0.49897388451931496 0.46122947136791814
0.23024370913670478 0.18875765142648904 0.5125836002248332
0.5924552005954592 0.20303840041738563 0.5645220023401918
0.32048740359793254 0.6081150026026503 0.4527870851315909
0.28046087196954916 0.6036345153532315 0.46522768387964875
0.5573206773265585 0.45978684815455123 0.4448993825746533
0.5605389402481384 0.022777645747824718 0.6452970102988261
0.3438284856336784 0.23517933543873284 0.5148316223721979
0.239939088527393 -0.0772166817132663 0.5685124493655991
0.3484818229760869 0.12620549140959575 0.5632940591244824
0.6576998886958877 0.19572251039774197 0.5574362381435762
0.26113032117623713 0.5275869198252539 0.480088975882807
0.5704388399212551 0.5792837997854435 0.4089654028812954
0.4567247823384965 0.11756512172391316 0.5712011531507518
0.6912553690530737 0.5243613601638273 0.4029025988918711
0.3117069883035422 -0.11866759017331703 0.6049325056905871
0.4505580788696583 0.3189618437415904 0.490919476478517
0.6842496101524973 0.11574552307414175 0.6128727307534158
0.5466651085680254 0.6639041449173935 0.39368219388898124
0.30781000665817515 -0.20909744656086732 0.61060253695488
0.7812453422428018 0.12700106581781953 0.6066644684784056
0.7250433677609132 0.04200276263253435 0.6581943168452395
0.6324835107012795 0.5339515868791371 0.4284009401473168
0.21456439840631739 -0.07465712515635939 0.5692743459421274
0.6893045403883655 -0.1939905277481266 0.7270253088873836
0.5829890382308099 0.30949957697756025 0.5194351547980517
0.3511126061548541 0.036095685536457915 0.5620534410917101
0.4221354373749755 0.39292954324813256 0.4966827062806672
0.4566166497545911 -0.25120118329778623 0.6692558045244134
0.47426738333023866 -0.16228704121551202 0.6431704650358976
0.296461345750823 0.3739984345320949 0.4727617342176233
0.6596386270611189 -0.060741052294866815 0.6941606871627722
0.53889792031481 0.5247752820407772 0.415502296548533
0.6924243814446681 -0.2027260621089339 0.7697631728783282
0.44372468203089255 -0.06497742942320088 0.6065865624806241
0.6084046857983886 0.14772352696176175 0.5636857059604343
0.5306226135330684 0.39429857341434127 0.4922293758542401
0.7678695577440883 -0.06331666233892637 0.7177382168719847
0.7537250578108443 0.3149653352307857 0.5134761445312629
0.40715450377602286 0.4196094290245966 0.4937818000908263
0.5266072607514156 0.04712655124152306 0.6026815332408157
0.28767595832898174 0.5114795549831431 0.46945838536867085
0.39086406237589394 0.30779270148463383 0.5026614340822081
0.8023895607060809 0.12013258318102353 0.6228173274052303
0.4460404492881815 0.239098399276803 0.522278271633242
0.7485821581257921 0.2682558696658985 0.5409032021483013
0.3384474577628812 -0.13714142437367918 0.6073271937111818
0.20619623701464226 0.09496348480799457 0.544524253588596
0.4894763298174351 0.057409861041037 0.5820194552625109
0.3968521816553861 0.09124840580681848 0.5497081410631278
0.6588465566208871 0.4364672969128138 0.4682566952315489
0.5453559690722766 0.16557932958070384 0.5509546435031965
0.26654927061164696 0.6276175650363215 0.4611177729822899
0.6933842978568526 0.011581223091513711 0.6701794043894881
0.6161370733130888 0.13858488405479627 0.5908406905848598
0.5324205504233734 0.4674714375036843 0.4761926149356174
0.36058737135310354 0.2413462924626649 0.5329937400554507
0.5582204355756919 0.23718639986838627 0.5392337264361744
0.7315996470137052 0.10739714482866793 0.6158173059465448
0.5824423736178839 -0.016170140109101703 0.6484478844430901
0.6515104087946456 0.015969884110114626 0.6625619863282398
0.39763916959303325 0.5579254150121945 0.43068229130731317
0.7135776028704319 0.36360741246341954 0.4911223026745947
0.7606658196525697 0.07490833530983396 0.6482909206986026
0.7503532781742173 0.2477127431191205 0.5629030586989657
0.24550178883440785 0.5341545242775764 0.4725855588763122
0.4716317673532564 0.5721182757959923 0.43340234905456765
0.32876557726083483 -0.12888995708416712 0.6178354728889721
0.6073764243314274 0.07188471769833643 0.6117675599308661
0.45231156939621103 0.052754945599975796 0.5795666891652647
0.4980653224658045 -0.21895094829970452 0.679319490301355
0.2187337996627175 0.3061621876738394 0.5235328936658993
0.3530097555538583 0.543953757320269 0.4579592484709965
0.36627626560552984 0.09543706803405147 0.5645114240897939
0.7968469087705923 0.41505022611458375 0.4621166844353356
0.4663632249192609 0.31078537009700763 0.5095835309331127
0.5237154130875888 0.08775068598577986 0.6125946371326868
0.25535797701182916 -0.15690372624159368 0.5760169487436646
0.6636766139381939 0.42188324813097966 0.486865539766146
0.6307431227078635 0.5269917155967941 0.4282284443817562
0.5581495137269342 0.3838369237011302 0.49744801813692696
0.7172432784320969 -0.0576545806824878 0.7005880817832166
0.3113205073334685 -0.22522868107021154 0.6061668988049183
0.4753407156836536 0.26284831320919533 0.5219485181637309
0.27308597907953297 0.4479067897256456 0.48307192691308776
0.3195468939917914 -0.19752839600724395 0.5913772252128826
0.6524925342016893 0.5132142911074163 0.43411853584588406
0.47590811285747875 0.2410216160562724 0.543917144110775
0.7583532915067126 0.39476674263571765 0.4797693466179505
