ply
format ascii 1.0
element vertex 1876
property float x
property float y
property float z
end_header
0.10127 -0.57598 -0.31756
0.30372 0.13023 0.12096
0.01354 1.35982 0.74398
-0.01206 0.04232 0.01964
0.26644 -0.19316 -0.09985
0.26821 0.70269 0.39077
0.03605 -0.20699 -0.07353
0.85574 0.02164 -0.06208
0.03975 -0.05891 0.01249
-0.54546 0.41260 0.24546
-0.45899 0.00884 -0.01515
-0.68189 -0.01266 0.01903
0.08040 -0.02087 -0.03433
0.24864 0.87836 0.49743
0.63835 -0.07445 -0.04524
-0.32778 1.26206 0.68513
0.08623 -0.57272 -0.32906
-0.17974 1.14646 0.63597
-0.11295 0.46885 0.33037
-0.10993 -0.21638 -0.12410
-0.01909 -0.09038 -0.08019
-0.25776 -1.36067 -0.84650
0.10015 0.32614 0.16185
-0.10240 0.58116 0.36723
0.24220 -0.04141 -0.00087
-0.01362 -0.01022 0.00284
-0.03290 0.17361 0.09105
0.02486 -0.22783 -0.12680
-0.51776 0.84482 0.51821
0.53943 -0.92028 -0.49404
0.51447 -0.89877 -0.54884
0.29740 -0.24996 -0.15099
0.35754 0.70833 0.33983
-0.50456 0.82278 0.47658
0.09251 0.07250 0.03622
-0.91983 -0.40758 -0.30867
0.33738 0.73244 0.38003
0.85892 -0.71386 -0.38920
0.59342 -0.21010 -0.09339
-0.08327 0.08552 0.08131
0.70513 0.88046 0.48100
0.63428 0.27557 0.13811
-0.03425 1.70930 1.01147
0.08256 -0.00959 -0.01108
0.36519 -1.57580 -0.95032
-0.05070 -0.00007 -0.05172
-0.11090 0.06716 0.01479
0.22447 0.03768 0.08290
0.09270 0.21108 0.13567
0.45315 -0.34577 -0.19812
0.39870 -0.28116 -0.21241
-0.02713 -0.85008 -0.51576
0.14096 0.08356 0.08778
0.78469 0.03299 0.00162
0.12807 -1.06647 -0.59952
-0.27482 0.23902 0.15507
-0.24720 -0.85490 -0.52559
-0.32498 0.18660 0.07021
0.69383 -0.69260 -0.38477
-0.51615 -0.56264 -0.30014
-0.34858 -0.06234 -0.09158
0.55131 0.39190 0.19565
-0.38718 -0.89653 -0.55173
0.17272 0.89736 0.58010
0.80796 -0.03985 -0.08327
0.41517 -0.26891 -0.15366
0.14888 0.82844 0.48096
0.15670 -0.04060 0.05031
-0.38959 -0.13522 -0.08557
-0.20604 0.73416 0.45023
0.34891 -0.55385 -0.40075
0.30618 -1.10220 -0.59689
0.82613 -0.54453 -0.29747
0.01979 -0.36773 -0.21701
0.02006 -1.02846 -0.60423
-0.06079 0.38331 0.24257
-0.43928 -0.43974 -0.20274
-0.35923 -0.09372 -0.05955
0.07028 0.40994 0.24588
-0.60613 0.75789 0.44349
0.17190 0.23209 0.14156
-0.25647 -0.75816 -0.38867
-0.43471 0.56567 0.41386
0.41832 -0.34928 -0.22897
0.38607 0.32372 0.17710
0.07033 0.03188 0.00092
-0.46206 0.56021 0.38306
0.04385 -0.97835 -0.59385
-0.20704 0.43940 0.31666
-0.54422 1.29197 0.75066
-0.74514 -0.56160 -0.35982
-0.35818 0.13738 0.01983
-0.25273 -0.99251 -0.63575
0.00874 0.01016 0.02248
-0.83477 0.59079 0.26521
-0.92887 -0.17582 -0.04878
0.83284 -0.26780 -0.16015
-0.47943 -0.06791 -0.09287
-0.36686 0.66677 0.42346
-0.21124 0.12780 0.05328
-0.56676 0.18693 0.10814
0.05046 0.05701 0.03205
-0.19974 0.45123 0.31399
0.47449 0.05679 0.04633
-0.43050 0.32816 0.18241
-0.03607 0.28023 0.16812
0.15252 0.62031 0.30317
-0.00609 -0.22101 -0.12849
-0.00826 -0.06852 -0.07789
0.50481 0.44115 0.21006
-0.06239 0.14367 0.08671
-0.08635 -0.07384 -0.06071
0.27972 1.11432 0.67128
0.68298 0.85016 0.53067
-0.21724 0.42866 0.30177
0.13317 1.05238 0.67392
-0.71652 0.33641 0.18370
-0.64599 -1.28942 -0.76512
-0.03120 -0.04000 -0.02997
-0.55010 0.23376 0.13302
0.07248 0.21443 0.13226
-0.70710 -0.36842 -0.25149
0.01299 -0.04525 0.00387
0.07506 0.77331 0.45967
0.53089 1.07115 0.66606
0.43409 -0.57095 -0.39843
-0.03421 -0.61134 -0.35307
0.56023 -0.25156 -0.11833
0.22977 0.12002 0.13648
0.20504 0.23703 0.14482
0.68174 -0.96041 -0.54303
0.10165 1.10350 0.63373
0.01675 -0.30177 -0.20027
0.45430 0.69503 0.34581
0.07977 1.57866 0.89229
-0.56977 0.45975 0.29838
0.41811 -0.26707 -0.14727
-0.11123 1.55312 0.94622
0.02276 -0.10289 -0.05005
-0.84183 0.59779 0.29155
0.26605 -1.12351 -0.55723
-0.00438 0.01037 -0.02491
-0.79808 -0.20851 -0.06422
0.00741 -0.03870 0.01008
-0.74783 -0.77399 -0.42079
0.68174 0.90892 0.56154
-0.25446 -0.04368 -0.06053
-0.46902 1.37697 0.80334
-0.55358 0.85333 0.52135
-0.09038 -0.90918 -0.53250
0.30310 -1.29516 -0.71723
-0.52733 0.78041 0.46767
0.10048 0.03692 0.04370
-0.24379 0.38121 0.27263
0.63549 -0.29957 -0.18339
0.03228 0.20600 0.12611
0.42567 0.54585 0.28696
0.09928 0.84210 0.50092
-0.04488 1.50562 0.84997
0.65588 0.11409 0.06856
0.33835 0.71182 0.42146
-0.53282 0.53041 0.30422
0.07261 -1.34020 -0.78039
-0.25556 -1.68417 -0.88564
0.18089 -0.12539 -0.05133
-0.06774 0.09006 0.06385
-0.63365 1.13872 0.65207
0.22327 -0.76241 -0.45391
-0.10905 -0.07675 -0.09633
-0.72381 0.49174 0.25410
0.29230 0.17192 0.13517
-0.11727 -0.03256 -0.08257
0.05989 0.18495 0.11688
0.53814 -1.14748 -0.62655
0.36210 -0.32659 -0.18346
-0.24679 1.34337 0.72730
-0.64980 -1.01589 -0.56804
-0.68783 0.11826 0.07679
-0.46564 0.90832 0.50821
0.02840 0.76131 0.43332
-0.11018 1.47207 0.89925
-0.33466 0.36506 0.23557
0.47831 0.29466 0.19173
0.04545 1.42752 0.82876
-0.00888 0.08187 0.03904
0.09492 0.75253 0.45782
0.52336 0.42807 0.21372
0.02544 1.40498 0.81930
-0.85520 0.15384 0.12403
0.82689 0.49107 0.33656
-0.38597 0.85695 0.48957
0.23257 -0.81893 -0.47755
0.63182 1.34348 0.76001
-0.38053 0.10801 0.03490
-0.78413 0.32290 0.17140
-0.37321 1.10047 0.57828
0.12237 -1.30822 -0.77809
-0.58394 0.67238 0.40164
-0.37389 -0.94606 -0.56721
0.00738 0.58582 0.34164
0.69732 0.82844 0.49869
-0.09419 0.89702 0.52438
-0.08994 -0.18390 -0.13465
0.68153 -0.74347 -0.45544
0.33694 -0.37527 -0.21072
0.83228 0.61835 0.37482
-0.76759 -0.54712 -0.37916
-0.32032 -0.61823 -0.28340
0.40065 -0.28034 -0.13015
-0.93473 0.20257 0.12842
0.16356 -0.96841 -0.53032
0.24573 -0.61892 -0.39633
0.14707 -0.24013 -0.13677
0.30908 -1.16124 -0.58158
-0.08624 1.10110 0.62815
0.10944 0.01567 0.02360
-0.03469 -0.29152 -0.14901
-0.33966 1.34739 0.81423
0.68127 0.43577 0.28083
-0.74782 -0.30555 -0.20507
0.35417 -0.36718 -0.23276
-0.53213 0.53266 0.34520
0.39915 -1.18402 -0.63862
0.64865 1.02510 0.60612
-0.52674 -0.49692 -0.23947
0.04058 -0.13399 -0.06296
-0.26302 -0.17911 -0.11756
-0.57318 1.21760 0.66446
-0.14115 -0.14112 -0.10337
0.24761 -0.41626 -0.30769
0.83699 -0.20275 -0.11152
0.24287 -0.42482 -0.28026
0.26153 0.36237 0.14517
0.78127 0.45724 0.28881
0.67943 1.16626 0.63539
0.61284 -0.07930 -0.06140
0.86758 0.62933 0.43610
-0.59755 -1.17102 -0.69131
0.37309 -0.83366 -0.47271
-0.55547 -0.75915 -0.42294
-0.23302 1.40297 0.82265
-0.27998 1.44749 0.88233
-0.61774 -1.19679 -0.71733
0.29650 -0.31441 -0.21452
-0.18136 -0.97087 -0.64481
-0.78000 0.09465 0.10158
-0.12308 0.77896 0.44615
-0.49607 -0.35257 -0.20394
-0.41011 -0.70517 -0.36618
0.13346 0.60419 0.35718
0.08649 -0.65135 -0.41306
-0.11814 -1.39724 -0.79068
0.06662 0.45436 0.23352
0.05403 -0.72198 -0.46346
-0.24274 1.34921 0.78409
-0.60327 -0.26187 -0.11996
0.71057 -0.53742 -0.25239
-0.23246 -0.78350 -0.43724
-0.03886 -0.29440 -0.19565
-0.04941 0.58568 0.31482
0.09846 0.01103 0.01089
-0.15150 -1.16802 -0.74655
0.03140 0.15896 0.10241
-0.13882 -0.03213 -0.11244
0.90385 -0.18260 -0.14293
-0.04627 -0.40757 -0.16741
0.62261 -0.73735 -0.40098
-0.12665 0.36495 0.22037
0.35530 1.38505 0.78499
0.03369 -0.14332 -0.06785
-0.45947 -0.16520 -0.11596
-0.00699 0.00506 -0.03751
-0.25989 -0.77121 -0.41816
-0.01854 -1.61581 -0.95742
-0.00672 0.14263 0.08668
0.05251 1.46243 0.83017
0.15256 -0.92185 -0.50648
-0.19533 0.41592 0.27730
-0.50842 0.15745 0.07992
0.71120 -0.46737 -0.21512
-0.17474 -0.68158 -0.37828
-0.11093 1.30523 0.74751
0.28704 0.65303 0.35850
-0.00447 0.04852 0.03107
0.05535 0.63630 0.33507
-0.18299 1.12749 0.62360
0.22173 -1.44108 -0.85600
-0.31243 0.07464 0.02566
0.74165 -0.31287 -0.16660
-0.37228 0.24376 0.10846
-0.51085 -0.85280 -0.49120
-0.25131 0.38086 0.28033
-0.88257 -0.14196 -0.03520
-0.46059 -0.84582 -0.47768
0.22119 -0.98821 -0.48721
-0.49986 0.41531 0.28725
-0.46309 0.48748 0.32577
-0.61930 0.42883 0.28317
0.02921 -0.07275 -0.02391
0.69918 1.20876 0.66736
0.37983 0.94026 0.58174
0.71506 0.58457 0.34966
0.54257 -0.92346 -0.49470
-0.16955 -0.29064 -0.16222
0.35518 0.52889 0.25516
0.52320 -0.06084 -0.00216
0.38159 -0.22065 -0.11678
0.71653 -0.51313 -0.23521
0.49252 1.40453 0.80257
-0.00668 -0.03721 -0.04369
0.63585 -0.93311 -0.53578
-0.08616 -0.16550 -0.13018
-0.28610 -1.22276 -0.69125
-0.08489 -0.18597 -0.12303
-0.48333 0.18713 0.08427
-0.62843 0.00483 -0.00277
0.46302 0.45791 0.18850
0.01018 0.37415 0.23168
0.13154 -1.23483 -0.69730
-0.30607 0.82433 0.49124
0.38269 -1.38797 -0.80938
-0.69133 0.78638 0.46537
-0.63755 -0.68310 -0.36812
-0.71693 -1.10235 -0.60138
0.77498 -0.49523 -0.23698
-0.28496 -0.71130 -0.36106
-0.08520 0.16002 0.09068
0.32531 -0.00185 -0.00849
-0.02511 -0.02355 0.01617
-0.54785 1.14652 0.61688
-0.06056 0.20381 0.11892
0.02525 -0.20226 -0.12105
0.07749 -0.00337 0.03467
0.09205 1.24175 0.72717
-0.72827 -0.94089 -0.53606
0.34658 -1.16530 -0.59815
-0.50057 0.95369 0.52399
0.11328 1.23675 0.76403
0.36345 0.83340 0.46188
0.11359 -0.07435 -0.02257
-0.38979 -0.26213 -0.15298
0.03740 -0.36890 -0.19306
-0.81695 -0.17817 -0.09106
-0.09343 1.60720 0.97773
0.37279 0.76931 0.41252
-0.00507 0.59838 0.34508
0.30336 0.80450 0.47050
-0.37464 1.24931 0.64744
-0.29371 0.59616 0.42708
0.05191 -0.46759 -0.29763
0.62486 0.39790 0.22748
0.05630 -0.08304 -0.04836
0.19495 1.39280 0.78499
0.43655 0.84727 0.53470
0.28235 0.92960 0.57304
0.95310 0.05468 -0.04849
-0.42659 -0.55650 -0.23443
-0.00297 -0.09765 -0.04525
-0.54744 0.56860 0.32726
-0.90535 -0.58300 -0.41677
-0.00664 0.01170 -0.00597
0.01643 0.10432 0.11578
-0.95555 0.32219 0.16711
0.18144 -0.17893 -0.09630
0.37414 0.28795 0.14577
-0.52054 -0.05337 -0.02716
0.24516 -1.02245 -0.57468
0.28577 -0.08834 0.00708
-0.31027 -0.26464 -0.17462
-0.23359 0.27159 0.11141
-0.03304 -0.07424 -0.06218
0.29161 -0.85563 -0.47852
-0.40973 0.85149 0.50936
-0.41349 0.44625 0.27657
0.44468 0.02492 0.07862
0.08180 0.04002 0.08095
0.29426 -1.57418 -0.94435
-0.66189 -0.17483 -0.08074
0.11450 -0.92163 -0.49368
0.46407 0.03016 0.12062
-0.47238 -0.31865 -0.18234
-0.34706 -1.23677 -0.76231
-0.79640 0.74331 0.39514
-0.78365 0.23365 0.11139
0.66334 -0.67189 -0.38915
-0.07871 -0.73545 -0.43088
0.51007 1.20568 0.67541
-0.39239 -1.37247 -0.76159
0.05736 0.01513 0.01867
0.55742 0.09168 0.09089
-0.15965 0.73188 0.46932
0.26132 0.96733 0.58293
-0.41706 -0.98688 -0.62189
-0.35648 -1.55642 -0.86301
0.02103 -0.05375 -0.00367
0.15931 -0.95994 -0.52818
0.64303 1.13328 0.67778
-0.45109 -0.50825 -0.27257
-0.20779 0.42544 0.30231
-0.09819 0.04001 -0.04450
0.08261 0.02960 0.02838
-0.35374 -0.70974 -0.38986
-0.39693 -0.13361 -0.12316
-0.39123 -0.14024 -0.14741
-0.09769 -0.82060 -0.47013
0.58127 -0.62888 -0.39706
0.08536 -0.20502 -0.11135
0.69126 -0.55303 -0.25788
-0.18793 1.22079 0.68254
0.19968 0.07445 0.09261
0.23545 -0.18800 -0.07295
-0.00656 -0.44643 -0.26238
-0.21655 -1.58677 -0.85972
-0.03389 -0.24302 -0.14990
0.06141 -0.28805 -0.19234
0.00189 1.16210 0.70815
0.03873 1.63810 0.91209
-0.61005 -0.10402 -0.05389
-0.00567 -0.00310 0.01828
-0.68673 0.01815 0.03423
-0.02588 -0.52529 -0.31503
-0.26826 1.18367 0.62040
0.42868 0.46959 0.18814
0.60198 0.18161 0.12435
-0.04315 0.05672 -0.01159
-0.62408 -0.19052 -0.08777
-0.09828 0.02802 -0.03320
0.38575 -1.52502 -0.96476
0.10300 0.25442 0.16173
0.14291 0.43659 0.22429
-0.00004 0.00401 0.00275
0.31272 0.38623 0.15210
-0.42665 0.10573 0.04938
-0.00764 -0.02800 0.00396
-0.59968 -0.66902 -0.37614
-0.46844 -0.44716 -0.26272
0.24538 -0.38421 -0.27296
-0.16086 -0.23158 -0.14309
-0.26151 0.37094 0.25749
0.35242 -0.10768 0.00851
-0.09735 0.60814 0.35252
-0.01265 1.66351 0.96247
0.76553 0.49179 0.26643
0.44011 -0.19510 -0.07492
-0.76612 0.29809 0.16841
-0.23217 -0.19206 -0.15123
0.71600 -0.71959 -0.42336
0.18728 -0.19172 -0.07550
0.00702 0.00386 -0.02911
-0.09019 -1.22642 -0.71962
0.08824 -1.10438 -0.55289
-0.36834 0.43774 0.34131
-0.30873 0.34736 0.20890
0.33986 1.03518 0.66568
-0.09795 1.18057 0.68938
-0.02445 0.32282 0.22924
-0.01362 -0.01679 0.00918
-0.00824 0.13486 0.08840
-0.51250 -1.44327 -0.83887
-0.46349 0.21847 0.08694
0.49875 -0.41740 -0.26811
0.87160 0.10780 -0.02048
0.01943 -1.49656 -0.85002
-0.53917 -0.83890 -0.49673
-0.62978 -0.24596 -0.15198
-0.29750 0.23348 0.08786
0.07202 -0.54622 -0.32728
-0.11535 1.29701 0.70471
0.20197 -0.01312 0.03553
-0.00906 -0.07414 -0.06618
-0.27003 -0.48873 -0.26874
0.02140 0.84685 0.50409
-0.17252 -0.65487 -0.33243
-0.63580 -0.15207 -0.08311
-0.10295 1.48528 0.83201
-0.01385 0.06378 0.06024
0.58525 0.24901 0.11460
-0.93368 -0.56556 -0.38404
0.07793 0.42400 0.25316
-0.08691 -1.09756 -0.63691
0.38000 -0.62403 -0.38601
0.30751 -0.03943 0.05716
0.72895 1.00778 0.59337
0.78927 -0.82061 -0.47947
0.65918 -0.94285 -0.56444
-0.39128 -1.29871 -0.77124
-0.36082 0.41746 0.30524
0.11387 -0.50006 -0.31472
-0.57659 1.28766 0.75268
0.00859 0.50447 0.30103
-0.74630 -0.67792 -0.42430
0.07554 -1.02923 -0.60941
-0.28052 0.15572 0.05525
-0.40540 -0.25231 -0.14145
0.32141 -0.53196 -0.38153
0.55560 1.04978 0.65141
-0.08245 1.06571 0.61376
0.86461 -0.54659 -0.26944
0.27346 -0.77294 -0.42981
-0.07044 -0.64801 -0.36200
0.30806 0.88180 0.54049
-0.00365 -0.02886 -0.00408
0.01381 0.26620 0.13389
0.44229 0.71570 0.35757
0.84705 -0.03833 -0.08784
-0.51449 -0.55080 -0.28322
0.53996 0.52499 0.25623
0.15579 1.20268 0.74508
0.06775 -0.08832 -0.03202
-0.02861 0.00675 -0.00472
-0.01450 -0.37549 -0.22300
-0.10841 -0.01580 -0.02543
-0.15067 0.24633 0.12036
-0.17948 -1.17611 -0.69614
-0.36545 0.50238 0.36113
0.09774 -1.26976 -0.76949
-0.79173 0.24306 0.11872
-0.20835 0.10452 0.03862
-0.10748 -0.15296 -0.10539
-0.13938 1.23098 0.70229
0.01832 -1.18216 -0.70419
0.24707 1.37487 0.77097
0.03055 0.16148 0.09396
0.09620 0.00228 -0.00556
-0.03333 0.04156 0.03166
0.02671 -1.31196 -0.78590
0.31594 0.22886 0.15766
0.26125 0.52736 0.23343
0.17107 -0.39322 -0.24535
0.04596 0.27137 0.17076
0.09001 -0.68121 -0.40355
-0.23795 0.53216 0.37696
0.43093 -0.79250 -0.45153
0.78368 0.46062 0.33797
0.53189 0.82411 0.45942
0.06623 -0.26797 -0.11225
0.64667 -1.10332 -0.61055
-0.04686 0.02640 -0.04598
-0.45417 0.30655 0.16497
0.50561 0.62135 0.33650
-0.46483 0.05648 -0.00248
-0.55800 -0.45361 -0.25949
0.61282 -1.12349 -0.63968
-0.00947 -0.44633 -0.27942
0.55450 -1.09117 -0.60532
0.72791 0.49387 0.29041
0.57867 -1.12021 -0.61712
-0.79826 0.37082 0.16074
-0.32671 -0.64433 -0.33814
-0.18467 0.84664 0.48147
-0.11511 1.22532 0.66729
0.73666 -0.16087 -0.12175
-0.01095 -0.06910 -0.04591
-0.39207 -1.02963 -0.64680
0.76936 0.97630 0.54524
-0.61676 -1.14743 -0.65230
0.19025 0.23372 0.14324
-0.32321 0.40980 0.31186
0.97955 0.10166 -0.06428
0.20040 -1.40492 -0.82289
0.73765 0.36418 0.23617
0.99897 0.04840 -0.00384
-0.52095 0.47435 0.30612
0.30903 0.37321 0.18308
-0.68774 -0.65605 -0.42722
0.06046 -0.26245 -0.16185
-0.78600 0.79953 0.41871
-0.44155 -1.25083 -0.74879
-0.22429 -0.43147 -0.22159
-0.42561 -0.58833 -0.29315
0.08450 0.01018 0.06847
0.39354 0.22983 0.13390
0.14152 0.51311 0.25089
-0.21299 1.65063 0.98382
-0.48607 -0.74170 -0.41228
-0.10858 0.06567 0.00220
0.23876 0.83173 0.48855
0.00805 -0.26934 -0.15160
0.56127 1.03330 0.57010
-0.07991 0.17090 0.09107
0.37631 1.61312 0.88853
-0.26176 0.52804 0.39785
-0.01481 0.85129 0.51185
0.32615 -1.55723 -0.93677
-0.04463 -0.35916 -0.20325
-0.12116 -0.70752 -0.37437
0.94247 0.32970 0.21045
-0.65469 -0.88827 -0.51504
-0.36327 -0.07605 -0.06757
0.00369 0.15813 0.09878
0.00200 0.00155 -0.00461
-0.71169 -0.24324 -0.16494
-0.06784 0.27619 0.16303
0.42096 -0.54739 -0.32884
0.39335 0.64676 0.31275
0.49328 0.51024 0.22244
-0.02741 -0.01180 -0.02812
0.55787 -0.00186 0.03671
0.47640 -1.01471 -0.60626
0.25130 1.02287 0.61582
-0.14925 0.89363 0.46876
0.06014 0.89194 0.48220
0.04062 0.09494 0.08545
-0.22868 1.07886 0.60568
-0.42661 -0.21630 -0.12037
0.36191 0.72373 0.32339
-0.85640 -0.17602 -0.07272
-0.28843 -0.21371 -0.13134
0.23729 -0.01228 0.05942
0.52136 -0.89916 -0.50023
-0.18304 -0.68694 -0.39740
-0.03906 0.05080 0.02049
0.18907 -1.41562 -0.78282
-0.13410 -0.83110 -0.49365
0.18843 -1.14355 -0.63745
0.28961 -0.04083 0.01045
0.60077 1.32544 0.76777
0.39630 1.50028 0.81094
-0.05186 0.40987 0.30364
-0.16392 -1.00119 -0.61840
0.40726 0.01893 0.04913
0.25437 -0.69141 -0.42849
-0.44297 1.04963 0.59367
-0.28358 -0.26239 -0.13494
0.04914 0.75508 0.46372
-0.77031 0.99231 0.61186
-0.35656 -1.34884 -0.78718
-0.18386 1.37062 0.81654
0.22336 0.36615 0.16009
0.21132 1.08726 0.68612
0.65927 1.05391 0.60052
0.09771 0.23077 0.16259
0.26092 -0.55160 -0.35673
-0.13682 0.18240 0.11187
0.33520 -0.54949 -0.38813
0.09767 -0.06537 0.04672
-0.02237 -0.00044 -0.02021
-0.17192 1.59605 0.94262
-0.27137 0.73908 0.45534
0.04849 0.03181 0.03168
0.41092 0.06222 0.08381
-0.03416 0.10090 0.03121
-0.37782 -0.42880 -0.17846
-0.01656 -1.37302 -0.79216
-0.58944 -0.34954 -0.20836
-0.77550 -0.22739 -0.14766
-0.15245 0.00644 -0.00595
-0.23296 1.10425 0.58446
-0.06155 -0.05848 -0.07526
-0.81725 -0.08219 -0.00018
-0.16024 0.20107 0.09570
-0.14351 -0.69306 -0.37614
-0.51670 0.21704 0.10826
-0.32712 -0.35368 -0.16487
-0.99125 0.04369 0.07048
-0.88425 -0.05632 0.02221
-0.15654 -0.02774 -0.07696
-0.23099 1.13725 0.58375
0.53824 -0.36525 -0.24018
0.26747 0.69936 0.33533
0.82425 0.95243 0.50485
-0.03608 0.87040 0.50713
0.79216 0.35515 0.22522
0.05652 0.06811 0.05394
0.47593 -1.04332 -0.57898
-0.11490 0.50089 0.26380
0.01545 0.24927 0.13434
0.19670 1.69521 0.94644
0.05457 -0.94451 -0.57340
0.65884 -0.14998 -0.08559
0.83053 0.29038 0.15345
0.21830 -1.00490 -0.57787
-0.11931 -0.19226 -0.14336
0.70637 1.19214 0.68103
0.40734 -0.82390 -0.44465
0.24277 -0.19304 -0.10125
-0.28299 -0.80666 -0.51187
0.23401 0.02776 0.01266
-0.85666 -0.45109 -0.30977
-0.09722 -0.44127 -0.23199
-0.30217 1.52066 0.91657
-0.03831 0.10355 0.04993
-0.01927 1.51101 0.83779
-0.47392 0.68506 0.42910
-0.46319 -0.42306 -0.19403
0.32074 -0.96622 -0.51938
0.60419 -0.79053 -0.43180
-0.32277 1.03871 0.53726
-0.01209 -0.05982 -0.03578
-0.55613 -0.93894 -0.57379
0.88011 -0.06180 -0.06501
-0.67500 0.68248 0.37091
0.66635 -0.65388 -0.42638
-0.55056 0.12430 0.10267
0.67099 1.26265 0.69357
-0.01474 0.00342 -0.00162
-0.09502 0.36637 0.22138
0.68083 0.05334 0.00997
-0.14645 0.71966 0.42391
-0.00316 0.00012 0.01613
0.24538 -1.60586 -0.95169
0.06306 0.67809 0.40687
0.07446 0.36864 0.22180
0.04473 0.02732 0.01053
0.00672 -0.01102 -0.04583
0.13010 0.63909 0.37337
0.01244 -0.81252 -0.47844
-0.19381 -0.08952 -0.09640
0.20750 1.59183 0.88139
0.16712 0.56023 0.31682
0.29342 0.64294 0.30674
0.13141 -0.92093 -0.52049
0.02182 0.68885 0.38971
-0.34256 0.85967 0.48791
-0.12286 1.33736 0.76661
-0.03876 -1.15541 -0.69068
0.19151 -0.46733 -0.31448
-0.01154 0.01738 0.02004
0.22648 -0.37887 -0.26654
0.03605 -0.25979 -0.14549
0.85309 0.67491 0.43506
-0.07937 1.51013 0.93350
-0.11087 -0.65846 -0.34861
0.15248 0.13417 0.09593
0.15072 -0.11344 -0.04957
-0.06661 -0.41327 -0.21223
0.58355 -1.32041 -0.74809
-0.42627 -0.79988 -0.49419
0.03747 0.01131 0.02268
0.90436 -0.29222 -0.18679
-0.62586 -0.53547 -0.33461
0.80170 -0.37894 -0.19826
-0.22130 -0.42388 -0.20806
0.63694 -0.98244 -0.55888
-0.58840 0.51366 0.26962
0.16961 -0.62155 -0.37745
0.48451 -1.27980 -0.72719
-0.44364 0.80704 0.48740
0.49768 -0.13250 -0.07199
0.10597 -0.28992 -0.14783
0.32403 -0.15388 -0.07630
0.13053 -1.42906 -0.85353
0.09116 0.52490 0.28093
0.51882 0.79859 0.45542
-0.57420 -0.40554 -0.23967
-0.52884 -0.45332 -0.23132
-0.40337 0.25728 0.16151
-0.07414 0.16950 0.10983
-0.19808 -0.58990 -0.25458
-0.30070 0.07378 -0.02312
-0.28113 0.43093 0.30690
0.20615 0.16799 0.12400
-0.21281 -0.69308 -0.38891
0.23501 0.10811 0.10646
0.55629 -0.31638 -0.18110
-0.52789 0.68008 0.41849
-0.09317 0.12405 0.04640
0.14279 0.01529 0.04506
0.59253 0.46171 0.25230
0.00591 0.01098 -0.03026
-0.06129 -0.18772 -0.12129
0.13104 -1.15822 -0.63996
0.18151 -0.24376 -0.14593
0.34878 -0.63894 -0.43673
-0.03233 -0.23926 -0.11169
-0.57392 -0.80193 -0.45311
0.49556 -1.47143 -0.87257
-0.38687 0.72075 0.43622
0.26953 1.63318 0.91697
0.38052 0.36006 0.22326
0.51960 -0.64686 -0.39173
-0.16651 0.01153 -0.03351
-0.04523 0.05235 0.02966
0.12710 -0.61420 -0.38593
-0.19078 -1.13324 -0.70788
-0.33425 0.00292 -0.02575
0.31367 -1.52151 -0.91709
-0.02913 0.46882 0.28000
0.74705 0.34369 0.24452
0.02476 -0.25679 -0.11721
0.65133 0.50148 0.30932
-0.15095 -0.73923 -0.41186
-0.14653 1.26658 0.67021
0.01617 0.38410 0.24335
0.00137 0.04658 0.00981
0.11814 0.63978 0.34463
-0.11679 0.76558 0.43737
0.14436 1.53776 0.84438
0.00007 0.32185 0.18943
0.24799 1.39088 0.81423
0.94478 0.05480 -0.04696
-0.14623 -0.29689 -0.15335
-0.11516 0.10940 0.01401
-0.05071 0.23699 0.12377
-0.92940 0.29927 0.14936
0.13365 -0.67004 -0.36793
0.10673 0.36601 0.21528
-0.60806 1.14892 0.66210
-0.15981 0.21523 0.10743
0.56639 0.20583 0.14324
0.01204 0.02028 0.05279
0.14130 0.32163 0.20135
-0.45659 -0.53290 -0.28276
-0.47289 -0.11827 -0.07975
-0.20167 -0.67251 -0.34381
0.08975 -0.06549 -0.03556
0.13352 -0.80894 -0.50158
0.00837 0.46782 0.22098
0.53982 0.08161 0.03868
0.00806 -0.00020 0.00782
-0.01053 -0.31986 -0.19176
0.77633 0.58146 0.40602
0.28032 1.37654 0.78773
0.04384 0.03407 0.06195
0.09474 0.30898 0.18787
0.10798 0.13042 0.04025
0.16220 0.55130 0.25570
0.44117 0.39911 0.19472
-0.62382 0.63098 0.38042
0.59135 -0.45419 -0.24465
-0.08995 -0.78345 -0.47921
0.11299 -0.81345 -0.43346
-0.04092 -0.34815 -0.19732
-0.32661 -1.08250 -0.68202
0.22292 -0.62568 -0.41948
0.07284 0.88383 0.50134
0.18405 0.74787 0.37663
0.00268 0.02739 0.01070
0.03507 -0.24365 -0.13054
-0.41832 -0.75807 -0.41157
-0.51659 -0.69612 -0.37409
0.49640 -1.39723 -0.83966
0.06442 0.13668 0.09859
0.16024 -0.09502 -0.02997
0.00704 -0.01788 -0.00376
-0.12025 0.06993 0.03837
0.35832 1.25182 0.71823
0.16741 -0.93335 -0.49315
0.51696 1.23893 0.71582
-0.53201 -1.35978 -0.78488
-0.54089 -0.05346 -0.04390
0.14769 -0.92941 -0.54738
0.50905 1.35083 0.77638
0.19093 -0.60158 -0.35933
0.36405 -0.84043 -0.43967
-0.12067 0.03668 -0.01592
0.15333 -0.27380 -0.16265
-0.17581 -0.09706 -0.11777
-0.27771 -1.34138 -0.78692
-0.00435 -1.18109 -0.65238
0.22996 -0.77215 -0.47234
-0.17131 0.98538 0.51111
-0.89614 0.48521 0.27491
0.19425 0.12802 0.10656
0.63956 0.66136 0.36823
-0.04056 -0.00301 0.01180
0.05481 -0.68797 -0.41956
-0.32220 -0.99708 -0.63494
0.13970 0.68757 0.33850
-0.18314 0.52198 0.33660
-0.74696 0.74808 0.42141
-0.65419 0.65436 0.35141
0.41447 -0.81854 -0.46386
0.01271 -0.14013 -0.03485
0.15652 -0.02709 -0.01394
-0.04586 0.09469 0.02513
0.01168 0.04110 0.04855
-0.16101 0.61215 0.39008
-0.82071 -0.65086 -0.41420
-0.33509 0.09529 -0.01110
0.35065 -0.31388 -0.23142
0.81380 -0.37290 -0.18317
-0.14971 1.39539 0.75120
0.03829 -1.10704 -0.63056
-0.66341 -0.17455 -0.07752
-0.11705 1.43812 0.82267
0.26315 -0.05434 0.04186
0.18885 -0.14692 -0.05592
-0.81229 -0.95523 -0.55627
-0.00589 -0.19860 -0.10294
-0.11401 -0.02248 -0.02175
0.56108 0.41596 0.22307
-0.50001 -0.42172 -0.22992
0.00873 -0.81990 -0.50283
-0.31978 1.57103 0.97520
-0.09002 -0.68003 -0.39487
-0.43873 0.21694 0.16358
-0.10269 0.16786 0.07852
0.16634 -0.36682 -0.26607
0.01419 -1.38871 -0.83017
0.57747 -0.90874 -0.51565
-0.12969 0.14893 0.09567
0.67190 1.26417 0.70771
-0.41470 -0.59881 -0.27850
0.48302 0.79028 0.45450
0.12646 1.71341 0.95413
0.38289 -0.75969 -0.40033
0.15087 0.16489 0.10404
-0.55107 -0.23411 -0.10860
-0.04230 -1.41467 -0.77260
0.02586 0.59734 0.33176
0.34221 0.69381 0.37573
0.01690 -0.11139 -0.05951
-0.35826 -0.71129 -0.40417
-0.75686 0.30740 0.14624
-0.98794 0.14785 0.11056
-0.38085 -1.25144 -0.77730
-0.05440 -0.22012 -0.16101
-0.36987 0.93964 0.51229
0.38421 -0.35482 -0.19519
-0.08682 -0.86727 -0.49423
-0.09031 -0.10793 -0.10059
-0.52724 -0.62358 -0.37579
0.13250 0.11823 0.09429
-0.41550 -0.56200 -0.26502
0.95659 -0.31236 -0.12293
-0.06348 0.72380 0.41668
0.15912 -0.68824 -0.41155
-0.16751 0.10459 0.06342
-0.19939 -0.72377 -0.37099
-0.08998 0.40057 0.23228
0.17829 -0.95030 -0.50684
-0.50283 -0.10045 -0.07774
0.14339 -0.31882 -0.17228
0.05229 -0.58610 -0.33563
0.30881 -0.56149 -0.39683
0.54016 -0.08803 -0.01615
-0.01968 0.03976 -0.01566
0.51942 1.29020 0.80297
0.64357 1.02514 0.57458
-0.42713 0.25430 0.11928
-0.56151 -1.14616 -0.68355
-0.15229 -0.32223 -0.19935
-0.17492 0.79195 0.44957
0.13153 0.20783 0.12172
0.15085 0.64214 0.30424
0.11317 1.01715 0.59029
-0.02312 1.16445 0.68485
-0.60963 0.40316 0.21555
0.58295 0.86431 0.46956
-0.22668 -0.30523 -0.15403
-0.02636 0.25386 0.13664
-0.05189 0.04010 -0.00145
0.02484 -1.49205 -0.87131
0.41106 -0.98763 -0.52171
0.06018 -0.01729 0.01453
-0.91345 0.65555 0.31518
0.30133 1.14226 0.68341
-0.13760 0.14048 0.05205
0.18105 -0.15433 -0.07170
0.39600 -0.01591 0.02860
-0.12572 -0.85614 -0.44717
0.68893 -0.24823 -0.13970
-0.06726 0.17539 0.07576
0.61238 -0.21801 -0.11012
0.14927 -0.68509 -0.43545
0.44996 0.09437 0.11662
0.04893 -0.01586 0.01416
0.41026 0.41389 0.20224
-0.81924 0.90403 0.48456
0.16721 1.40840 0.80651
0.17738 1.32831 0.76413
-0.58897 -0.20244 -0.12557
0.60393 -1.12074 -0.59226
0.35279 0.20462 0.15175
0.30083 0.90201 0.52432
0.12640 -1.15282 -0.58350
-0.03347 -0.01507 -0.01669
-0.81565 -0.60097 -0.39206
0.33726 -0.32094 -0.15908
-0.10021 -0.15211 -0.06565
-0.16874 0.60091 0.34973
-0.21331 1.41380 0.83966
0.39469 0.07199 0.09324
-0.27506 -1.22099 -0.76041
0.72460 -0.68855 -0.34216
0.44919 0.11620 0.13784
0.46729 -0.28972 -0.15364
-0.40547 -0.20203 -0.15921
-0.32525 -0.04010 -0.03109
0.23952 1.70621 0.90624
0.86725 0.50293 0.34284
0.07443 -0.16291 -0.09147
0.10109 0.61886 0.32658
-0.29449 -1.53718 -0.83667
0.21986 0.25752 0.17131
-0.01405 -0.51581 -0.29541
-0.25524 -0.97709 -0.61552
0.24854 1.08564 0.71046
-0.43345 -0.13175 -0.09789
0.68188 -1.23354 -0.75657
-0.08315 0.06926 0.04019
-0.02049 0.15263 0.11209
0.41348 0.29145 0.16535
0.07773 0.14711 0.11857
0.01393 -0.02481 -0.01984
-0.58302 -0.64243 -0.40500
-0.73824 -1.06855 -0.57621
-0.00334 0.01643 -0.02615
0.02941 1.59643 0.91266
0.64305 -0.49468 -0.27732
0.11210 -0.02657 0.02331
0.36266 1.45979 0.76048
0.41319 0.12930 0.11878
-0.05287 -0.09624 -0.05587
0.73888 -0.71542 -0.45924
-0.79156 0.54309 0.26545
0.35922 0.64148 0.29399
0.34035 -0.60349 -0.38166
-0.68840 0.35581 0.18380
0.12604 -1.32963 -0.79277
-0.01051 -0.19935 -0.07429
0.17406 0.11932 0.15247
-0.50653 -0.51137 -0.28329
-0.02661 0.24008 0.12919
-0.25444 0.36066 0.20796
-0.37770 0.28556 0.15874
0.11126 0.59108 0.25046
-0.22877 1.47019 0.86129
-0.47153 1.37557 0.79919
-0.01554 -0.31104 -0.14402
0.00735 0.00165 -0.01201
-0.03005 -0.82475 -0.46721
0.86878 -0.77709 -0.49522
-0.24422 -0.91256 -0.54208
-0.30918 1.17971 0.64330
-0.00845 1.52162 0.84467
0.17886 -0.38952 -0.24202
-0.61445 -0.62227 -0.35038
-0.81912 -0.23841 -0.14642
-0.18849 0.21579 0.12358
-0.28926 -1.32386 -0.77461
-0.03540 1.40037 0.82574
0.33534 1.65245 0.86819
-0.59818 0.54100 0.34481
0.11256 0.13114 0.10681
-0.87583 0.19566 0.14950
0.05841 -0.35705 -0.23062
0.09344 -0.39953 -0.22301
0.42186 0.51621 0.25766
-0.33639 -1.00245 -0.63586
-0.40056 0.28645 0.17840
-0.18798 0.15328 0.05795
-0.24421 -0.73578 -0.45468
-0.91905 -0.08834 0.03344
0.36226 1.60062 0.90018
-0.40824 0.13004 0.06989
0.00014 -0.00847 0.01449
0.53038 0.65580 0.33270
0.65077 0.62694 0.35341
0.79256 0.94197 0.49309
0.39652 -1.24803 -0.69443
0.64707 -0.97307 -0.56153
0.48852 -0.24650 -0.08629
0.06434 1.09184 0.67229
0.05411 0.31245 0.20785
0.28343 -0.95929 -0.48408
0.72269 -0.26974 -0.16192
0.41637 -0.45194 -0.32582
0.45931 -0.13767 -0.09669
-0.27115 -0.97375 -0.64774
-0.18749 0.41529 0.24252
-0.25412 -0.08333 -0.06632
-0.40428 -1.25350 -0.74378
0.65933 -0.04006 0.00749
0.22164 0.31750 0.17089
-0.11915 -0.17596 -0.12347
0.10906 -0.93386 -0.54720
-0.50284 1.25724 0.73428
-0.10911 1.46767 0.89496
-0.02050 0.01868 0.02949
-0.11631 0.44286 0.29510
0.37626 -0.68090 -0.41816
-0.77461 0.60401 0.27408
-0.95424 -0.48413 -0.35015
-0.23538 -1.37347 -0.81464
0.22346 -0.91480 -0.52098
0.02167 0.41760 0.20494
-0.29725 0.16372 0.07176
0.62480 0.07935 0.04541
-0.66560 -0.10252 -0.02755
-0.69389 -1.00310 -0.54210
-0.11769 0.12653 0.08210
-0.80670 -0.40464 -0.22690
-0.11150 -0.49069 -0.27101
-0.34888 -0.04759 -0.04939
-0.20565 -0.61610 -0.31800
-0.12662 0.34131 0.22898
0.03551 0.06053 0.07131
-0.57069 0.35495 0.21353
0.69735 -0.65596 -0.36649
-0.26545 -1.04260 -0.66004
0.57347 0.27675 0.16178
-0.08161 1.68105 0.96985
0.29822 0.09899 0.07478
0.45022 0.41230 0.16394
-0.16807 -1.23443 -0.75118
0.06458 0.19226 0.08344
-0.23596 0.19708 0.11049
-0.07407 -0.02870 -0.03057
0.33737 -0.94832 -0.47892
0.24200 -0.02091 0.05086
-0.20403 -1.20014 -0.71116
0.56770 -0.36459 -0.24485
-0.10313 -0.09516 -0.10225
0.54597 1.09016 0.64447
0.37766 -0.53096 -0.35408
0.03954 0.16586 0.11407
-0.35809 -0.11413 -0.11411
0.13255 0.53414 0.28983
-0.50471 -1.09981 -0.64762
-0.04959 0.30373 0.16957
-0.00748 -0.07887 -0.06377
0.58115 0.70416 0.41766
0.07322 1.63737 0.92948
-0.41086 0.84490 0.48196
-0.03493 0.21097 0.09934
-0.53161 0.07760 -0.00215
-0.11341 -0.12711 -0.10511
0.46143 0.88868 0.52556
-0.52005 0.06715 -0.00215
-0.78101 0.54061 0.27556
-0.19790 -1.13732 -0.70769
-0.18958 1.57581 0.97416
0.00264 -0.01593 -0.00233
-0.13343 0.25209 0.12944
0.24434 0.03090 0.08316
0.43751 -0.39914 -0.27329
0.13103 -0.20397 -0.11233
-0.02077 -0.02757 -0.01400
0.31858 -0.26915 -0.20065
0.22011 0.16343 0.14944
0.20147 1.32729 0.75493
-0.41745 -0.04524 -0.05101
0.09424 -0.20787 -0.08192
0.49566 -0.16262 -0.07552
-0.27240 -0.12646 -0.13114
0.75463 -0.43262 -0.19847
0.27081 -0.17433 -0.13931
-0.57047 0.67543 0.38984
0.26976 0.94094 0.61869
-0.01605 -0.08794 -0.05143
0.16887 -0.54457 -0.35611
-0.02349 0.01050 0.00966
-0.14829 0.18859 0.08995
0.56312 0.06602 0.03329
0.37899 0.00500 0.04387
0.19956 -0.08596 -0.02538
-0.42794 0.03614 -0.01239
0.35998 0.92130 0.54167
0.08038 0.04745 0.03572
-0.49298 -1.11464 -0.66448
-0.40988 -1.02292 -0.65432
0.83821 -0.73683 -0.37410
-0.10639 0.19291 0.08565
0.50386 -0.45973 -0.29041
0.38093 -0.48984 -0.31959
-0.69045 -0.06915 0.01107
-0.27077 1.33084 0.74888
0.14118 -0.45897 -0.33961
-0.39053 0.51739 0.36637
0.80587 -0.44278 -0.22651
-0.33196 0.33849 0.18957
0.04652 -0.07302 -0.03399
-0.01729 0.09718 0.05994
-0.48978 -1.18776 -0.73162
-0.51651 0.13131 0.05434
-0.29204 -0.41764 -0.20665
-0.10032 0.69732 0.44944
-0.19248 1.42857 0.83710
-0.73497 -0.33026 -0.20284
-0.46221 -0.52430 -0.23821
0.27396 -0.20543 -0.12174
-0.02529 1.47303 0.83208
0.75206 -0.96268 -0.53477
-0.04005 0.73792 0.44568
-0.01803 -0.18672 -0.10706
0.68915 0.33873 0.20191
0.59589 -0.88017 -0.46457
-0.47637 -0.72268 -0.39486
-0.42287 0.69451 0.42898
-0.57074 0.95527 0.53752
0.01697 0.14419 0.07148
-0.77544 0.08535 0.08431
0.34389 1.03233 0.64951
-0.08802 -0.24107 -0.16687
0.02363 0.03879 0.05180
0.14175 -0.07910 0.01624
0.17383 -1.39924 -0.79228
-0.48601 0.52701 0.33830
-0.40281 0.47183 0.31641
-0.10825 -0.42473 -0.17968
0.68748 -1.00680 -0.61665
0.00652 0.88791 0.51817
0.43546 -1.36320 -0.77911
-0.60357 0.15431 0.11487
-0.54299 -0.12356 -0.07204
-0.46912 0.67500 0.40358
0.12655 -0.54213 -0.37276
0.45027 -0.31333 -0.19293
-0.47106 -0.93895 -0.61098
0.14470 0.24453 0.16366
0.09916 -0.29502 -0.15720
0.09516 0.50131 0.26122
-0.15854 0.00815 -0.03606
-0.45609 0.73560 0.43446
-0.10599 0.26849 0.10428
0.42633 -0.28319 -0.15356
-0.12422 -0.60264 -0.32891
-0.01079 -0.37449 -0.19391
-0.33015 -0.29520 -0.18101
0.34780 0.29685 0.16206
-0.10584 -0.11626 -0.11030
0.38104 0.48947 0.21349
-0.51289 -1.20570 -0.72374
-0.25770 -0.14810 -0.12765
-0.06899 -0.36092 -0.17855
-0.37901 -0.23946 -0.15986
0.05427 -1.45539 -0.82780
0.40216 -1.23249 -0.69955
-0.54969 0.76945 0.45484
0.07100 -0.30259 -0.17953
-0.01238 0.50336 0.26910
0.18402 1.01322 0.65625
-0.65249 -0.99170 -0.57201
0.28948 0.31648 0.16584
0.14178 -0.37452 -0.26315
0.15507 -0.29205 -0.18797
0.65147 -0.51126 -0.32631
-0.63492 0.49144 0.29386
0.22027 -0.77498 -0.44271
0.00988 0.13967 0.08360
-0.04175 1.26228 0.73219
-0.93520 0.28020 0.12667
-0.01490 -0.00309 0.01497
0.71527 0.51391 0.35288
0.27802 0.30130 0.18297
-0.00421 0.26187 0.18727
-0.30575 0.36823 0.25486
0.52850 -1.05641 -0.56995
0.17919 -0.09467 -0.03347
-0.31402 -0.62983 -0.29956
0.57382 -0.42087 -0.25012
0.53413 0.27760 0.20071
0.18655 -1.59779 -0.94066
-0.40058 -1.30691 -0.72884
-0.29854 -1.21515 -0.74146
0.12719 -1.28454 -0.73977
-0.91935 -0.37666 -0.23995
0.51495 0.34360 0.19074
-0.01375 -0.11298 -0.08053
-0.08247 0.62601 0.37429
0.39845 0.69307 0.35089
-0.55893 0.34093 0.16718
0.03867 -0.11184 -0.08500
-0.51580 -0.69041 -0.33884
-0.03449 0.03330 -0.01576
0.27431 -0.38293 -0.24400
-0.34606 1.21570 0.65012
-0.28958 -1.23197 -0.77238
0.40309 0.65023 0.33275
-0.69673 -1.07709 -0.55154
0.35631 -0.50353 -0.35140
0.13091 0.03478 0.05526
0.16387 0.98258 0.56705
0.03456 -0.91190 -0.49047
-0.22985 0.04675 -0.02057
0.08654 -0.32164 -0.16696
-0.11745 -0.06346 -0.07197
-0.25525 0.93654 0.46978
0.00662 0.29865 0.20570
-0.31000 0.27646 0.17753
0.67769 -0.26644 -0.13022
-0.52359 -0.24210 -0.14885
0.34317 0.59552 0.29153
0.39424 -0.40152 -0.28998
0.45606 0.54924 0.25712
0.00594 0.25599 0.13691
-0.28320 0.18742 0.04885
-0.15301 -0.17979 -0.10960
0.49280 -0.06717 -0.05575
-0.69746 -0.05143 -0.01778
-0.10767 -0.58884 -0.32509
0.05246 0.51355 0.29516
-0.09210 0.40603 0.21981
-0.55826 -1.16381 -0.67887
0.15290 -0.03018 -0.00414
0.00820 0.02550 0.01331
-0.25867 -1.32541 -0.77993
-0.69187 -0.10360 -0.04643
0.09964 -0.37841 -0.26108
-0.09725 0.15612 0.07437
-0.00181 -0.02264 0.00074
-0.01984 -0.83264 -0.48214
-0.00065 0.01384 0.00983
-0.55095 -0.10396 -0.05496
-0.80161 0.28711 0.15805
0.02088 0.01618 -0.01120
0.20751 0.52800 0.25822
-0.25964 -0.76330 -0.44482
0.05679 -0.08764 -0.05008
0.27270 -1.42111 -0.86260
-0.78770 0.82182 0.47023
-0.07441 -0.23277 -0.14347
-0.26254 -0.38274 -0.22610
0.34346 0.26642 0.16298
0.04027 0.03507 0.03390
-0.03540 1.24914 0.70779
0.46260 0.38040 0.22270
-0.25388 -0.47829 -0.22592
-0.02726 -0.79838 -0.50664
0.20222 -0.04552 -0.00434
-0.43197 0.16897 0.07449
-0.10789 1.55633 0.96033
-0.12968 -1.31060 -0.78198
0.58907 0.06901 0.07082
-0.31209 1.48764 0.89148
-0.04810 -1.46915 -0.81511
-0.70676 -0.38200 -0.24203
0.00964 -0.38728 -0.20666
-0.02804 0.20011 0.09624
-0.26081 -0.78815 -0.42920
-0.28153 0.10484 0.01315
0.03809 -0.50215 -0.29627
0.05167 0.06916 0.07893
0.12366 1.06782 0.66345
-0.30313 0.48187 0.31608
0.90078 -0.75029 -0.40363
0.46927 0.01625 0.06437
-0.59582 -0.81832 -0.48751
-0.76150 -0.12395 -0.02780
0.12545 0.53125 0.28185
0.06922 -0.20796 -0.09640
0.80620 -0.07436 -0.03994
-0.19763 0.16677 0.09378
0.09399 -0.07531 -0.00947
0.06550 -0.61165 -0.36610
-0.46876 -0.16054 -0.11330
0.06788 -0.34115 -0.23752
-0.05554 -0.45900 -0.24295
0.13998 0.81632 0.45117
-0.13309 0.29390 0.18824
-0.14710 -0.48475 -0.22665
0.90858 -0.29915 -0.17725
-0.09374 0.93714 0.52231
-0.07146 -0.23742 -0.15725
0.12390 0.00278 0.06568
0.48402 -1.36736 -0.77201
-0.05537 0.02164 0.04894
-0.90721 0.61132 0.29727
0.43038 -0.06974 -0.00007
-0.75465 0.36938 0.23269
-0.50891 0.12097 0.05052
0.74187 -1.14184 -0.69266
0.84094 -0.79067 -0.42503
-0.19662 -0.26025 -0.16017
-0.55974 -1.34776 -0.80876
0.08013 0.61661 0.31720
0.65697 1.17853 0.71103
-0.06952 -1.31843 -0.74761
0.54633 -0.39635 -0.26999
-0.70568 1.17378 0.68021
0.05584 0.08089 0.01997
0.25962 1.13893 0.74531
0.19129 -0.62985 -0.39542
0.34688 -1.40349 -0.82747
0.03510 -1.68713 -0.98941
0.06394 -0.67368 -0.45880
0.53750 -0.37590 -0.21462
-0.76559 -0.94083 -0.51549
0.69808 -0.15924 -0.08617
-0.09986 1.27403 0.75859
0.04423 -0.06244 -0.00820
-0.11955 0.04420 0.02823
-0.52408 0.03465 -0.01174
0.62947 -1.07946 -0.61684
-0.30282 0.32725 0.22426
-0.20575 0.77851 0.46724
-0.50727 0.68171 0.40682
0.04673 -0.07653 -0.07194
-0.77958 -0.51953 -0.33499
-0.69817 -0.67323 -0.41925
-0.62381 0.25366 0.17129
0.72989 -0.02678 -0.03855
0.91344 -0.34334 -0.20606
0.28043 -0.35771 -0.23140
0.78031 0.10046 -0.02363
0.52332 1.29949 0.73811
-0.41021 -1.29475 -0.76478
0.12847 -1.18369 -0.64628
-0.45011 -1.10568 -0.64305
-0.43754 1.23433 0.71164
0.13537 -1.26185 -0.72068
0.69638 -0.11184 -0.10373
0.39953 0.83194 0.53802
-0.10537 0.85356 0.45950
-0.20123 0.04066 -0.02374
-0.36275 0.07300 0.02129
0.02295 0.03836 0.03150
-0.01902 0.00780 -0.01767
0.33888 -0.31775 -0.19853
-0.50959 -1.42024 -0.81998
-0.05352 -0.65679 -0.35345
-0.87238 0.12696 0.10358
0.57746 0.93685 0.52508
-0.18870 0.08242 0.00266
-0.05370 -0.26502 -0.14953
0.85747 -0.10002 -0.10270
-0.02570 0.90143 0.50525
-0.35315 -0.26943 -0.17743
0.41930 -0.34728 -0.21058
0.34837 -1.30199 -0.71935
0.26533 1.45675 0.79801
-0.88618 0.80918 0.44341
0.06150 1.27134 0.73098
0.46033 -1.38856 -0.81215
-0.68619 -1.15512 -0.62849
0.15619 -0.34887 -0.20062
-0.56266 -0.52280 -0.28154
0.17198 -0.38979 -0.23635
0.92973 0.13033 0.00676
-0.06688 -0.16085 -0.11048
-0.49068 0.14254 0.05739
-0.58918 -0.76730 -0.44900
0.38030 -0.12703 -0.03534
-0.52135 -1.01350 -0.58640
-0.02352 -0.44067 -0.26979
-0.30974 0.91475 0.49292
-0.73026 -1.17967 -0.64008
-0.76648 -0.35936 -0.26768
-0.29837 -0.45167 -0.19735
0.34351 0.83384 0.52394
-0.34372 -0.33431 -0.14881
-0.04496 1.44305 0.84181
0.28602 0.06077 0.10827
-0.00202 -0.34008 -0.18785
0.19424 -0.85702 -0.48479
-0.00593 -0.38523 -0.20874
0.03195 0.29607 0.15869
-0.05128 -1.12773 -0.65217
-0.88824 -0.65844 -0.40254
0.21535 1.40527 0.79985
0.02795 0.06805 0.06840
0.65071 -0.04491 -0.01604
-0.47571 -0.54481 -0.23553
0.28632 -0.96291 -0.52647
0.88317 0.46888 0.32252
0.46438 -1.45986 -0.90526
-0.39654 0.55197 0.36060
-0.50427 -0.02515 -0.03645
-0.01675 0.02323 0.01216
-0.17447 -1.33205 -0.76940
-0.63009 1.28076 0.75086
0.61271 0.98355 0.57165
0.13751 0.59369 0.36209
0.28474 0.06714 0.10063
0.00908 -0.26172 -0.09203
0.25636 -0.33385 -0.18544
-0.57626 -1.17335 -0.66878
0.08712 -0.08195 -0.02955
0.12363 -0.89023 -0.53540
-0.15722 -0.16712 -0.09985
-0.76744 -0.89448 -0.51499
0.18243 1.00453 0.61554
0.11010 0.41543 0.24269
-0.04020 -1.12508 -0.60408
0.77134 -0.08508 -0.02795
0.24200 0.14355 0.13481
-0.32406 -0.05719 -0.06602
0.21000 -1.37315 -0.81146
0.20625 0.38534 0.19966
-0.05142 -0.21026 -0.07876
-0.01133 -0.29947 -0.13468
-0.40685 -0.86283 -0.49081
-0.55257 -0.72123 -0.43034
-0.24940 -0.15051 -0.11382
-0.37225 -0.96100 -0.57822
-0.40752 -0.10556 -0.08917
-0.03287 -0.84249 -0.46134
-0.24954 -1.61583 -0.87191
-0.18482 -0.36830 -0.20835
-0.43525 -1.24508 -0.75764
-0.13307 0.27582 0.17861
-0.32999 1.30759 0.72869
-0.00061 -0.00026 -0.00088
-0.58522 -0.59022 -0.34839
-0.11943 -0.49630 -0.26063
0.31900 -0.14303 -0.03618
0.41256 -0.05063 0.02569
0.72728 -0.68242 -0.37348
0.37295 0.91237 0.51567
-0.48107 -1.13144 -0.68978
-0.33636 -0.16416 -0.15048
-0.97599 0.24064 0.16845
0.00865 -0.43054 -0.28280
0.60284 0.40261 0.20259
-0.58801 0.10619 0.03300
0.08218 0.06644 0.10610
0.46097 -0.36878 -0.24398
0.71826 -0.45533 -0.23637
-0.04449 -0.23686 -0.12357
-0.00666 -1.21446 -0.72469
-0.12821 0.43368 0.30253
-0.02052 0.28869 0.15127
0.05072 0.67255 0.42418
-0.01506 -1.38367 -0.80338
-0.01194 -0.07884 0.00224
-0.00804 -0.29385 -0.16903
-0.18766 1.39601 0.78590
-0.13311 -1.29430 -0.75243
-0.36606 0.07256 -0.00030
-0.14991 -0.92288 -0.54555
-0.08143 -0.05807 -0.07913
-0.02354 -0.07754 -0.07992
0.06140 0.78255 0.43318
-0.15835 -0.13457 -0.10544
0.08466 -0.07483 -0.05802
-0.26774 0.06316 -0.03400
-0.10896 -0.12945 -0.08265
0.52189 -1.41981 -0.79867
0.48151 0.98729 0.59869
-0.31626 0.25061 0.07943
-0.56415 0.97470 0.52684
-0.28216 0.26473 0.15149
-0.14605 -1.18507 -0.69365
0.06155 -0.26457 -0.17028
0.44281 0.76672 0.41304
0.07102 -1.26498 -0.71394
0.83869 -0.27114 -0.16924
-0.32111 0.89950 0.48854
-0.75802 -0.39760 -0.24737
0.01766 0.30899 0.15613
-0.01695 -0.07141 0.00817
0.43057 0.63569 0.32456
-0.32681 -1.11591 -0.65728
-0.11504 1.52104 0.91772
0.01830 -0.10331 -0.04603
0.68163 0.68112 0.40726
-0.33072 1.36912 0.76998
-0.53478 -0.17926 -0.15717
0.13600 0.62195 0.29647
0.18910 0.24373 0.15528
-0.33606 -0.83388 -0.49842
-0.54720 0.14419 0.06971
-0.39107 1.16508 0.61038
-0.93003 0.03752 0.05006
-0.50736 -0.51347 -0.30457
0.35051 1.18357 0.72760
0.86845 0.11987 0.05589
0.00923 0.01957 -0.00949
0.04797 -0.03428 -0.02834
-0.71316 -0.14085 -0.08751
0.59527 -0.14303 -0.08414
0.79128 -0.52812 -0.31237
0.16819 -0.49513 -0.31109
-0.05299 0.00021 0.03426
-0.14552 1.08189 0.58661
0.53875 -1.08848 -0.59643
0.06751 -0.13562 -0.07068
-0.00813 0.48159 0.19499
-0.11365 -0.12708 -0.10578
0.22915 -0.05032 -0.01558
-0.20672 -0.03845 -0.03953
-0.07577 0.71460 0.43906
-0.88760 -0.17851 -0.08076
0.14934 -0.79110 -0.47598
-0.25056 0.33374 0.19894
0.37824 -0.28035 -0.16686
-0.01931 -0.61471 -0.34019
-0.28772 -1.32626 -0.75682
0.31888 0.96506 0.59115
0.36384 1.24977 0.75244
-0.65914 0.82464 0.51171
-0.19399 0.35308 0.19915
0.09916 -1.44714 -0.83109
0.10446 0.45016 0.20941
0.56891 -1.14841 -0.68582
0.13440 -0.69445 -0.40869
0.58694 0.65715 0.36240
-0.16730 -0.28194 -0.13596
-0.09853 0.09048 0.04435
-0.09128 -1.21157 -0.72592
-0.46493 1.19785 0.60858
-0.78127 0.96216 0.59360
0.68464 0.48720 0.28631
-0.75028 0.16984 0.12069
-0.37035 0.11367 0.03072
-0.25353 -0.22686 -0.12205
0.52858 0.44324 0.23001
0.23951 0.22705 0.13546
-0.01578 0.13447 0.07525
0.26610 0.05654 0.08300
0.11180 -0.18265 -0.10276
-0.05907 0.42090 0.25084
0.30794 -0.46458 -0.33460
0.79992 -0.68862 -0.38559
-0.64483 -1.16251 -0.65881
0.50389 0.27384 0.17375
-0.13617 -0.44881 -0.22616
0.72505 -0.48231 -0.25475
-0.27408 0.78989 0.41928
0.02795 -0.04324 -0.00250
-0.29168 -0.39307 -0.18934
-0.41117 -0.27476 -0.16949
-0.40853 -1.51831 -0.83762
0.25490 0.94961 0.55336
-0.05875 0.49765 0.30808
0.72830 -0.84130 -0.49305
0.78665 0.49175 0.33581
-0.28662 0.35122 0.24505
0.14513 -0.02105 0.03186
0.11269 1.50491 0.85358
0.33975 0.10709 0.12227
-0.51901 1.46665 0.81604
-0.35834 -1.61901 -0.85504
0.61638 0.35945 0.21192
0.08910 0.77751 0.46691
0.06231 -0.10595 0.00672
-0.44521 0.74184 0.50624
0.90011 0.02060 -0.06894
0.56672 0.71039 0.40036
0.04722 -0.19674 -0.09609
0.16848 0.04779 0.08653
0.85673 -0.10064 -0.09173
-0.07060 1.18253 0.60022
0.04447 1.28818 0.74102
0.02706 -0.03348 -0.04706
-0.25559 1.19946 0.65010
-0.09407 -1.20567 -0.69712
0.00074 -0.05801 -0.03969
-0.16637 -0.32800 -0.19400
-0.05563 0.07604 0.03225
0.45234 -0.62537 -0.35773
-0.74975 -0.35951 -0.20552
0.65423 0.80528 0.47520
0.31775 -0.18305 -0.06714
-0.03138 0.15838 0.10227
0.60969 -1.11632 -0.64351
0.19570 0.22075 0.13408
-0.08284 -0.12423 -0.11291
0.05967 -0.07409 -0.02376
0.16116 1.61945 0.88820
0.03227 -0.16772 -0.05094
-0.29534 -0.34954 -0.22821
0.60760 1.06464 0.60395
-0.17407 -0.08364 -0.08049
-0.36477 -1.53294 -0.81773
-0.50621 -0.45825 -0.23200
-0.22683 1.33805 0.72995
0.85157 -0.57984 -0.24708
0.29894 0.25158 0.15726
0.48772 -1.47139 -0.88962
0.29796 -0.25726 -0.16278
-0.80036 -0.03176 -0.00416
0.15671 0.53775 0.27677
0.38411 -0.15424 -0.01794
-0.37714 -0.93900 -0.62216
0.16668 0.27269 0.15746
0.21325 -0.39388 -0.26006
-0.13023 0.35039 0.24245
0.03997 -0.12121 -0.08275
-0.15229 -0.13909 -0.09498
0.26654 0.62020 0.30435
0.54171 -1.41962 -0.80042
-0.17413 0.67381 0.41523
0.80674 0.29799 0.21215
0.41500 0.15398 0.11417
0.81133 0.52107 0.37347
-0.45982 1.12742 0.60303
-0.57120 -0.31939 -0.18632
-0.40614 -0.16834 -0.12911
-0.17995 -0.65275 -0.33698
0.16619 -0.16385 -0.04538
0.12959 0.06320 0.11265
0.00763 1.62390 0.92107
0.13015 -0.07311 -0.00596
0.05902 -0.45038 -0.23348
0.49242 -0.73850 -0.44818
0.43049 -1.21473 -0.65700
0.47392 -0.18843 -0.09374
0.75296 -0.25401 -0.14593
-0.09137 -1.24644 -0.73735
-0.11523 -1.21416 -0.72226
0.13683 -0.01339 0.02679
0.48249 0.67484 0.34658
-0.44099 0.53239 0.36993
-0.92929 0.55922 0.26160
-0.61936 -1.35985 -0.78146
-0.02770 0.09654 0.06157
-0.29686 -0.01815 -0.08200
0.57394 0.58614 0.32401
0.73622 -0.95190 -0.56902
-0.04058 -0.26255 -0.13570
-0.67714 0.82310 0.46851
0.12568 0.77441 0.39459
0.53642 0.20462 0.13257
0.26638 0.88341 0.52838
-0.00415 -0.02275 0.00071
0.08270 0.29295 0.16403
0.00507 -0.03654 -0.02534
-0.14086 -1.35874 -0.78880
0.23784 0.61795 0.30414
0.11717 0.35039 0.19316
0.58878 -0.38087 -0.24722
0.17055 -1.47445 -0.89575
-0.01513 0.02216 0.04476
-0.25761 -1.01736 -0.57973
0.53724 0.80237 0.44718
-0.27468 0.17951 0.08723
-0.67950 -0.53241 -0.31272
-0.12542 -0.12219 -0.07558
0.38460 0.35950 0.17335
0.61103 -1.29169 -0.78466
-0.37900 -1.31230 -0.76360
0.28543 0.52253 0.22851
-0.29144 0.22554 0.09371
0.40422 0.62339 0.27062
0.29033 -0.69643 -0.42152
0.15086 -0.03984 -0.02479
0.71600 -0.98387 -0.57541
0.41015 1.24514 0.79259
0.01055 -0.01594 0.01257
0.36775 0.56608 0.29947
-0.21743 -0.85768 -0.52842
0.86610 0.22860 0.06059
0.06904 0.09908 0.07078
-0.47438 1.14401 0.65523
0.05647 -1.26478 -0.72778
0.21372 0.18687 0.13949
0.42495 1.35343 0.78812
-0.05638 -0.04317 -0.01509
-0.18365 0.26950 0.14296
-0.12855 0.52023 0.33198
0.40342 0.71227 0.34667
0.38852 0.44830 0.22237
-0.16278 0.06247 -0.05960
-0.53870 -0.10588 -0.07723
-0.31333 0.38001 0.23582
-0.32411 1.22594 0.68311
0.03904 -0.04938 -0.06646
-0.58364 -0.79532 -0.46888
-0.27492 0.06255 -0.02896
-0.22329 0.06035 -0.01861
0.02481 0.14562 0.07595
0.85510 -0.22593 -0.09761
0.26966 0.41687 0.20422
0.17711 -0.26949 -0.17991
-0.45318 1.10584 0.59481
-0.31481 -0.40361 -0.18190
0.02430 0.11723 0.05184
0.31624 0.11151 0.12741
0.11100 -0.00165 0.02928
-0.14859 0.45134 0.29773
-0.26201 -0.48864 -0.23616
0.05137 0.30131 0.22836
-0.14479 -0.07890 -0.10692
0.15883 -0.54840 -0.35471
0.07787 -0.10925 -0.05019
0.21325 -0.03183 0.01620
0.34606 -0.65536 -0.41780
0.21554 -1.52453 -0.90974
0.10028 0.39245 0.20429
0.00157 0.00761 0.01791
-0.63662 1.32740 0.74270
0.33700 0.32895 0.19648
-0.25559 -0.24676 -0.14998
0.35074 0.72431 0.35446
-0.52374 0.84250 0.47868
0.08582 -1.42286 -0.79670
0.47159 -0.29087 -0.18541
-0.75278 -0.25457 -0.16883
-0.12732 0.30730 0.13441
0.43158 0.78397 0.42158
0.02859 0.12297 0.05378
0.21571 -1.46398 -0.86332
0.00264 -0.02356 -0.01030
0.00210 0.01234 -0.02050
0.54402 1.11287 0.62767
0.17114 0.07623 0.08409
0.53504 0.92801 0.58283
-0.18225 -1.36551 -0.81222
0.22842 0.04940 0.03686
0.09931 -0.26616 -0.17500
0.14526 -0.47933 -0.30949
-0.43026 0.24968 0.15766
-0.03204 -1.09623 -0.62320
0.64920 -0.94622 -0.57913
-0.19003 0.86736 0.45090
0.73934 0.45585 0.29140
-0.19809 1.48235 0.92500
0.00325 0.00097 -0.02768
0.08966 -0.12194 0.00973
0.78816 -1.00680 -0.60734
0.41525 -0.49327 -0.35914
0.05082 -0.13505 -0.06568
-0.19961 -0.70180 -0.34593
0.39510 1.42276 0.80346
0.44491 0.65982 0.33706
0.16344 -0.36564 -0.21895
0.56712 -0.77568 -0.47709
-0.27175 0.32978 0.20223
-0.09761 0.29826 0.20607
0.13511 -0.04732 0.00987
0.29973 0.50478 0.21499
-0.44166 -0.56209 -0.29561
0.21717 -1.13798 -0.59522
-0.23803 1.63578 1.00673
-0.84085 -0.18333 -0.10117
-0.13117 0.09983 0.04840
0.32709 -0.98494 -0.54448
-0.44510 0.22098 0.11991
0.01351 -0.01017 -0.00221
-0.10468 -0.44574 -0.20258
-0.01390 -0.85746 -0.46445
0.36510 -0.07872 0.01130
-0.74990 0.95261 0.58429
-0.35123 -1.61645 -0.82989
-0.45858 -0.79923 -0.42450
0.38474 -0.82839 -0.51588
0.41583 0.08927 0.08587
0.43443 0.85543 0.47644
-0.39328 -0.47774 -0.27352
0.39734 -0.80193 -0.50994
-0.80460 -0.10960 -0.01237
0.31053 1.33982 0.79313
-0.03738 -0.61832 -0.31413
-0.08278 0.99419 0.54184
0.33482 1.32669 0.77240
-0.04390 -0.21845 -0.11337
-0.03445 -0.23638 -0.12859
0.00490 -0.00160 -0.04902
-0.69870 -0.05424 -0.00999
0.22865 0.47745 0.22149
-0.51410 0.19508 0.13638
0.30945 0.03858 0.08833
-0.06902 -0.87977 -0.49323
-0.05629 0.00994 -0.01277
-0.65513 -0.71979 -0.40265
0.02579 1.11197 0.63255
0.46398 -0.90671 -0.52241
-0.53915 1.24530 0.71012
-0.02005 -0.06247 -0.00358
0.76803 0.25366 0.13119
0.00273 0.00259 -0.01238
-0.16112 0.50502 0.31682
0.03354 -0.48640 -0.30588
-0.18817 -0.60249 -0.32617
0.51701 -1.07690 -0.60248
0.09580 0.65678 0.34329
0.00225 0.04845 0.06408
0.17296 0.62879 0.31607
0.43302 -0.66136 -0.42122
-0.08792 0.46778 0.33406
-0.88521 -0.61362 -0.41362
0.09750 0.41258 0.21215
-0.87709 0.08259 0.08268
0.85222 -0.54006 -0.25591
0.71081 -0.05351 -0.04495
-0.85508 -0.82778 -0.46241
-0.67705 -0.76415 -0.41155
-0.12534 -0.34224 -0.18736
-0.09299 0.13797 -0.00440
0.42941 1.10543 0.70169
-0.28276 0.53284 0.42014
0.26060 -0.45719 -0.30359
-0.19921 0.96113 0.53257
-0.21889 -0.93013 -0.53614
0.02706 -0.01178 0.01444
-0.08656 0.17214 0.05567
0.19659 -0.94274 -0.51587
-0.01594 0.14234 0.05848
-0.44566 -0.01594 -0.03910
-0.14419 0.13591 0.06506
-0.17715 -1.39559 -0.80174
0.68405 0.85828 0.49159
-0.48983 0.13755 0.06779
